-0.06928253 -0.02634668 -0.3379822 0 0 255
-0.06928253 -0.02632046 -0.3358231 0 0 255
-0.06928253 -0.02629375 -0.3336639 0 0 255
-0.06928253 -0.02626562 -0.3314972 0 0 255
-0.06928253 -0.02623749 -0.3293419 0 0 255
-0.06928253 -0.02620745 -0.3271828 0 0 255
-0.06928253 -0.02617741 -0.3250237 0 0 255
-0.06928253 -0.02614641 -0.3228607 0 0 255
-0.06928253 -0.02611494 -0.3207054 0 0 255
-0.06928349 -0.02608204 -0.3185425 0 0 255
-0.06928349 -0.02604914 -0.3163834 0 0 255
-0.06928349 -0.02601528 -0.3142204 0 0 255
-0.06928349 -0.02598143 -0.3120651 0 0 255
-0.06928349 -0.02594614 -0.309906 0 0 255
-0.06928349 -0.0259099 -0.3077431 0 0 255
-0.06928349 -0.02587318 -0.3055878 0 0 255
-0.06928349 -0.02583599 -0.3034248 0 0 255
-0.06928349 -0.02579784 -0.3012657 0 0 255
-0.06928349 -0.0257597 -0.2991028 0 0 255
-0.06928349 -0.02572107 -0.2969475 0 0 255
-0.06928349 -0.02568102 -0.2947884 0 0 255
-0.06928349 -0.02564144 -0.2926292 0 0 255
-0.06928349 -0.02560091 -0.2904625 0 0 255
-0.06928349 -0.0255599 -0.2883072 0 0 255
-0.06928349 -0.02551842 -0.2861481 0 0 255
-0.06928349 -0.02547646 -0.283989 0 0 255
-0.06928349 -0.02543449 -0.281826 0 0 255
-0.06928349 -0.02539158 -0.2796707 0 0 255
-0.06928349 -0.02534866 -0.2775116 0 0 255
-0.06928349 -0.02530527 -0.2753487 0 0 255
-0.06928349 -0.02526093 -0.2731857 0 0 255
-0.06928349 -0.02521706 -0.2710304 0 0 255
-0.06928349 -0.02517271 -0.2688713 0 0 255
-0.06928349 -0.02512741 -0.2667122 0 0 255
-0.06928349 -0.02508259 -0.2645493 0 0 255
-0.06928349 -0.02503729 -0.262394 0 0 255
-0.06928349 -0.02499151 -0.260231 0 0 255
-0.06928349 -0.02494574 -0.2580719 0 0 255
-0.06928349 -0.02489948 -0.255909 0 0 255
-0.06928349 -0.02485323 -0.2537537 0 0 255
-0.06928349 -0.0248065 -0.2515945 0 0 255
-0.06928349 -0.02475977 -0.2494354 0 0 255
-0.06928349 -0.02471256 -0.2472687 0 0 255
-0.06928349 -0.02466536 -0.2451134 0 0 255
-0.06928349 -0.02461767 -0.2429543 0 0 255
-0.06928349 -0.02456999 -0.2407951 0 0 255
-0.06928349 -0.0245223 -0.2386322 0 0 255
-0.06928349 -0.02447414 -0.2364769 0 0 255
-0.06928349 -0.02442598 -0.2343178 0 0 255
-0.06928349 -0.02437735 -0.2321548 0 0 255
-0.06928349 -0.02432871 -0.2299919 0 0 255
-0.06928349 -0.02428007 -0.2278366 0 0 255
-0.06928349 -0.02423143 -0.2256775 0 0 255
-0.06928349 -0.02418232 -0.2235146 0 0 255
-0.06928349 -0.02413321 -0.2213593 0 0 255
-0.06928349 -0.02408361 -0.2191963 0 0 255
-0.06928349 -0.02403402 -0.2170372 0 0 255
-0.06928349 -0.02398443 -0.2148743 0 0 255
-0.06928349 -0.02393484 -0.212719 0 0 255
-0.06928349 -0.02388525 -0.2105598 0 0 255
-0.06928349 -0.02383471 -0.2084007 0 0 255
-0.06928349 -0.02378464 -0.2062378 0 0 255
-0.06928349 -0.02373457 -0.2040787 0 0 255
-0.06928349 -0.02368402 -0.2019196 0 0 255
-0.06928349 -0.02363348 -0.1997604 0 0 255
-0.06928349 -0.02358294 -0.1975975 0 0 255
-0.06928349 -0.02353239 -0.1954422 0 0 255
-0.06928349 -0.02348137 -0.1932831 0 0 255
-0.06928349 -0.02343035 -0.1911201 0 0 255
-0.06928349 -0.02337933 -0.1889572 0 0 255
-0.06928349 -0.0233283 -0.1868019 0 0 255
-0.06928349 -0.02327728 -0.1846428 0 0 255
-0.06928349 -0.02322578 -0.1824837 0 0 255
-0.06928349 -0.02317429 -0.1803207 0 0 255
-0.06928349 -0.02312279 -0.1781654 0 0 255
-0.06928349 -0.02307129 -0.1760025 0 0 255
-0.06928349 -0.02301931 -0.1738434 0 0 255
-0.06928349 -0.02296734 -0.1716805 0 0 255
-0.06928349 -0.02291584 -0.1695251 0 0 255
-0.06928349 -0.02286386 -0.167366 0 0 255
-0.06928349 -0.02281189 -0.1652069 0 0 255
-0.06928349 -0.02275944 -0.1630402 0 0 255
-0.06928349 -0.02270746 -0.1608849 0 0 255
-0.06928349 -0.02265501 -0.1587257 0 0 255
-0.06928349 -0.02260256 -0.1565666 0 0 255
-0.06928349 -0.02255011 -0.1544037 0 0 255
-0.06928349 -0.02249765 -0.1522484 0 0 255
-0.06928349 -0.0224452 -0.1500893 0 0 255
-0.06928349 -0.02239227 -0.1479263 0 0 255
-0.06928349 -0.02233934 -0.1457634 0 0 255
-0.06928349 -0.02228689 -0.1436081 0 0 255
-0.06928349 -0.02223396 -0.141449 0 0 255
-0.06928349 -0.02218103 -0.139286 0 0 255
-0.06928349 -0.02212811 -0.1371269 0 0 255
-0.06928349 -0.02207518 -0.1349716 0 0 255
-0.06928349 -0.02202129 -0.1328087 0 0 255
-0.06928349 -0.02196693 -0.1306458 0 0 255
-0.06928349 -0.02191305 -0.1284866 0 0 255
-0.06928349 -0.02185869 -0.1263313 0 0 255
-0.06928349 -0.02180433 -0.1241722 0 0 255
-0.06928349 -0.02175045 -0.1220093 0 0 255
-0.06928349 -0.02169561 -0.1198463 0 0 255
-0.06928349 -0.02164173 -0.117691 0 0 255
-0.06928349 -0.02158689 -0.1155319 0 0 255
-0.06928349 -0.02153254 -0.113369 0 0 255
-0.06928349 -0.02147818 -0.1112137 0 0 255
-0.06928349 -0.02142334 -0.1090546 0 0 255
-0.06928349 -0.02136898 -0.1068954 0 0 255
-0.06928349 -0.02131414 -0.1047287 0 0 255
-0.06928349 -0.02125978 -0.1025734 0 0 255
-0.06928349 -0.02120495 -0.1004143 0 0 255
-0.06928349 -0.02115011 -0.09825516 0 0 255
-0.06928349 -0.02109528 -0.09609222 0 0 255
-0.06928349 -0.02104092 -0.09393692 0 0 255
-0.06928349 -0.02098608 -0.09177399 0 0 255
-0.06928349 -0.02093077 -0.08961487 0 0 255
-0.06928349 -0.02087593 -0.08745193 0 0 255
-0.06928349 -0.02082062 -0.08529663 0 0 255
-0.06928349 -0.02076435 -0.08313751 0 0 255
-0.06928349 -0.02070713 -0.08097839 0 0 255
-0.06928349 -0.02064848 -0.07881546 0 0 255
-0.06928349 -0.02058792 -0.07665634 0 0 255
-0.06928349 -0.02052402 -0.07449722 0 0 255
-0.06928349 -0.02045679 -0.0723381 0 0 255
-0.06928349 -0.02038527 -0.07017517 0 0 255
-0.06928349 -0.02030706 -0.06801987 0 0 255
-0.06928349 -0.0202198 -0.06586075 0 0 255
-0.06928349 -0.02012157 -0.06369781 0 0 255
-0.06928349 -0.02000856 -0.06153488 0 0 255
-0.06928349 -0.01987505 -0.05937958 0 0 255
-0.06928349 -0.01971292 -0.05722046 0 0 255
-0.06928349 -0.01950216 -0.05505753 0 0 255
-0.06928349 -0.01922369 -0.05289841 0 0 255
-0.06928349 -0.01880789 -0.0507431 0 0 255
-0.06928349 -0.0180974 -0.04858017 0 0 255
-0.06928349 -0.01623106 -0.04641724 0 0 255
-0.06928349 -0.001930237 0.02484894 0 0 0
-0.06928349 -0.002749443 0.02700806 0 0 0
-0.06928349 -0.003270626 0.02917099 0 0 0
-0.06928349 -0.003667831 0.03133011 0 0 0
-0.06928349 -0.003933907 0.03348541 0 0 0
-0.06928349 -0.004199028 0.03564835 0 0 0
-0.06928349 -0.004401684 0.03781128 0 0 0
-0.06928349 -0.004557133 0.0399704 0 0 0
-0.06928349 -0.004708767 0.0421257 0 0 0
-0.06928349 -0.004821777 0.04428482 0 0 0
-0.06928349 -0.004916191 0.04644775 0 0 0
-0.06928349 -0.00500536 0.04860306 0 0 0
-0.06928349 -0.005084991 0.05076599 0 0 0
-0.06928349 -0.005141258 0.05292511 0 0 0
-0.06928349 -0.005183697 0.05508804 0 0 0
-0.06928349 -0.005226135 0.05724335 0 0 0
-0.06928349 -0.005261421 0.05940247 0 0 0
-0.06928349 -0.0052948 0.06156158 0 0 0
-0.06928349 -0.005322933 0.06372833 0 0 0
-0.06928349 -0.005331993 0.06588364 0 0 0
-0.06928349 -0.005339622 0.06804276 0 0 0
-0.06928349 -0.005345345 0.07020187 0 0 0
-0.06928349 -0.005351067 0.07236481 0 0 0
-0.06928349 -0.005358219 0.07452011 0 0 0
-0.06928349 -0.005366802 0.07667923 0 0 0
-0.06928349 -0.005371571 0.07884216 0 0 0
-0.06928349 -0.005364418 0.0810051 0 0 0
-0.06928349 -0.005357742 0.0831604 0 0 0
-0.06928349 -0.00535059 0.08531952 0 0 0
-0.06928349 -0.005344868 0.08747864 0 0 0
-0.06928349 -0.005339146 0.08964157 0 0 0
-0.06928349 -0.005333424 0.09179688 0 0 0
-0.06928349 -0.005331039 0.09395981 0 0 0
-0.06928349 -0.005329609 0.09611893 0 0 0
-0.06928349 -0.005328178 0.09828186 0 0 0
-0.06928349 -0.005318165 0.1004372 0 0 0
-0.06928349 -0.005307674 0.1025963 0 0 0
-0.06928349 -0.005300045 0.1047592 0 0 0
-0.06928349 -0.005293846 0.1069221 0 0 0
-0.06928349 -0.005289555 0.1090775 0 0 0
-0.06928349 -0.005285263 0.1112366 0 0 0
-0.06928349 -0.005283356 0.1133995 0 0 0
-0.06928349 -0.005281925 0.1155586 0 0 0
-0.06928349 -0.005280972 0.1177139 0 0 0
-0.06928349 -0.005281448 0.119873 0 0 0
-0.06928349 -0.005285263 0.1220398 0 0 0
-0.06928349 -0.005289555 0.1241989 0 0 0
-0.06928349 -0.005290031 0.1263542 0 0 0
-0.06928349 -0.005289555 0.1285133 0 0 0
-0.06928349 -0.005293369 0.1306763 0 0 0
-0.06928349 -0.005297661 0.1328316 0 0 0
-0.06928349 -0.005302429 0.1349945 0 0 0
-0.06928349 -0.005308628 0.1371536 0 0 0
-0.06928349 -0.005316734 0.1393166 0 0 0
-0.06928349 -0.005326271 0.1414719 0 0 0
-0.06928349 -0.005335331 0.143631 0 0 0
-0.06928349 -0.005347729 0.1457901 0 0 0
-0.06928349 -0.005360126 0.147953 0 0 0
-0.06928349 -0.005373478 0.1501122 0 0 0
-0.06928349 -0.005387306 0.1522713 0 0 0
-0.06928349 -0.005403996 0.1544304 0 0 0
-0.06928349 -0.005420208 0.1565933 0 0 0
-0.06928349 -0.00543642 0.1587486 0 0 0
-0.06928349 -0.00545454 0.1609077 0 0 0
-0.06928349 -0.005473614 0.1630669 0 0 0
-0.06928349 -0.005492687 0.1652336 0 0 0
-0.06928349 -0.005511761 0.1673889 0 0 0
-0.06928349 -0.005531788 0.169548 0 0 0
-0.06928349 -0.005550861 0.1717072 0 0 0
-0.06928349 -0.005569458 0.1738701 0 0 0
-0.06928349 -0.005588531 0.1760254 0 0 0
-0.06928349 -0.005607605 0.1781883 0 0 0
-0.06928349 -0.005627155 0.1803474 0 0 0
-0.06928349 -0.005646229 0.1825104 0 0 0
-0.06928349 -0.005665302 0.1846657 0 0 0
-0.06928349 -0.005684376 0.1868248 0 0 0
-0.06928349 -0.005702972 0.1889877 0 0 0
-0.06928349 -0.005720615 0.1911469 0 0 0
-0.06928349 -0.005737782 0.193306 0 0 0
-0.06928349 -0.005754948 0.1954651 0 0 0
-0.06928349 -0.00577116 0.197628 0 0 0
-0.06928349 -0.005785942 0.1997871 0 0 0
-0.06928349 -0.00579977 0.2019424 0 0 0
-0.06928349 -0.005814075 0.2041016 0 0 0
-0.06928349 -0.005825043 0.2062683 0 0 0
-0.06928349 -0.005835533 0.2084274 0 0 0
-0.06928349 -0.005846024 0.2105827 0 0 0
-0.06928349 -0.005854607 0.2127419 0 0 0
-0.06928349 -0.005861759 0.2149048 0 0 0
-0.06928349 -0.005868912 0.2170601 0 0 0
-0.06928349 -0.005876064 0.2192192 0 0 0
-0.06928349 -0.005880833 0.2213821 0 0 0
-0.06928349 -0.005886078 0.2235451 0 0 0
-0.06928349 -0.005890846 0.2257004 0 0 0
-0.06928349 -0.005894661 0.2278595 0 0 0
-0.06928349 -0.005897999 0.2300186 0 0 0
-0.06928349 -0.005901337 0.2321815 0 0 0
-0.06928349 -0.005904675 0.2343407 0 0 0
-0.06928349 -0.005907059 0.2364998 0 0 0
-0.06928349 -0.005908489 0.2386589 0 0 0
-0.06928349 -0.005908489 0.2408218 0 0 0
-0.06928349 -0.005908966 0.2429771 0 0 0
-0.06928349 -0.005909443 0.2451363 0 0 0
-0.06928349 -0.005908966 0.2472954 0 0 0
-0.06928349 -0.005910397 0.2494621 0 0 0
-0.06928349 -0.00591135 0.2516174 0 0 0
-0.06928349 -0.005910397 0.2537766 0 0 0
-0.06928349 -0.005912304 0.2559357 0 0 0
-0.06928349 -0.005914688 0.2580986 0 0 0
-0.06928349 -0.005914688 0.2602539 0 0 0
-0.06928349 -0.005917549 0.2624168 0 0 0
-0.06928349 -0.005920887 0.264576 0 0 0
-0.06928349 -0.005922318 0.2667389 0 0 0
-0.06928349 -0.00592804 0.2688942 0 0 0
-0.06928349 -0.005931854 0.2710533 0 0 0
-0.06928349 -0.005935669 0.2732162 0 0 0
-0.06928349 -0.005936623 0.2753754 0 0 0
-0.06928349 -0.005937099 0.2775345 0 0 0
-0.06928349 -0.005935669 0.2796936 0 0 0
-0.06928349 -0.005936146 0.2818565 0 0 0
-0.06928349 -0.00593853 0.2840157 0 0 0
-0.06928349 -0.005935192 0.286171 0 0 0
-0.06928349 -0.005939007 0.2883301 0 0 0
-0.06928349 -0.005938053 0.290493 0 0 0
-0.06928349 -0.005928516 0.2926559 0 0 0
-0.06928349 -0.005917549 0.2948112 0 0 0
-0.06928349 -0.005901814 0.2969704 0 0 0
-0.06928349 -0.005884647 0.2991333 0 0 0
-0.06928349 -0.00586462 0.3012886 0 0 0
-0.06928349 -0.005829334 0.3034477 0 0 0
-0.06928349 -0.005781651 0.3056107 0 0 0
-0.06928349 -0.005721569 0.3077736 0 0 0
-0.06928349 -0.005653381 0.3099289 0 0 0
-0.06928349 -0.005543232 0.312088 0 0 0
-0.06928349 -0.005408764 0.3142471 0 0 0
-0.06928349 -0.005222797 0.3164101 0 0 0
-0.06928349 -0.004980564 0.3185654 0 0 0
-0.06928349 -0.004625797 0.3207283 0 0 0
-0.06928349 -0.004131317 0.3228874 0 0 0
-0.06928349 -0.003351688 0.3250504 0 0 0
-0.06928349 -0.001825809 0.3272057 0 0 0
-0.06712246 -0.01389933 -0.4200516 0 0 255
-0.06712246 -0.01972389 -0.4178886 0 0 255
-0.06712246 -0.0226388 -0.4157257 0 0 255
-0.06712246 -0.02429533 -0.4135704 0 0 255
-0.06712246 -0.02532434 -0.4114113 0 0 255
-0.06712246 -0.0259819 -0.4092522 0 0 255
-0.06712246 -0.02640915 -0.4070892 0 0 255
-0.06712246 -0.02668667 -0.4049339 0 0 255
-0.06712246 -0.02686501 -0.402771 0 0 255
-0.06712246 -0.02697611 -0.4006119 0 0 255
-0.06712246 -0.02704287 -0.3984489 0 0 255
-0.06712246 -0.02707911 -0.3962936 0 0 255
-0.06712246 -0.02709675 -0.3941345 0 0 255
-0.06712246 -0.02710295 -0.3919716 0 0 255
-0.06712246 -0.02710485 -0.3898087 0 0 255
-0.06712246 -0.02710581 -0.3876534 0 0 255
-0.06712246 -0.02710629 -0.3854942 0 0 255
-0.06712246 -0.02710629 -0.3833313 0 0 255
-0.06712246 -0.02710485 -0.381176 0 0 255
-0.06712246 -0.02710295 -0.3790169 0 0 255
-0.06712246 -0.02709913 -0.3768578 0 0 255
-0.06712246 -0.02709436 -0.374691 0 0 255
-0.06712246 -0.02708817 -0.3725357 0 0 255
-0.06712246 -0.02708054 -0.3703766 0 0 255
-0.06712246 -0.02707148 -0.3682175 0 0 255
-0.06712246 -0.02706146 -0.3660545 0 0 255
-0.06712246 -0.02704954 -0.3638992 0 0 255
-0.06712246 -0.02703667 -0.3617401 0 0 255
-0.06712246 -0.02702284 -0.3595772 0 0 255
-0.06712246 -0.02700758 -0.3574142 0 0 255
-0.06712246 -0.02699089 -0.3552589 0 0 255
-0.06712246 -0.02697277 -0.3530998 0 0 255
-0.06712246 -0.02695417 -0.3509407 0 0 255
-0.06712246 -0.02693415 -0.3487778 0 0 255
-0.06712246 -0.02691317 -0.3466187 0 0 255
-0.06712246 -0.02689123 -0.3444595 0 0 255
-0.06712246 -0.02686787 -0.3423004 0 0 255
-0.06712246 -0.02684402 -0.3401375 0 0 255
-0.06712246 -0.02681923 -0.3379822 0 0 255
-0.06712246 -0.02679348 -0.3358231 0 0 255
-0.06712246 -0.02676678 -0.3336639 0 0 255
-0.06712246 -0.02673912 -0.3314972 0 0 255
-0.06712246 -0.02671099 -0.3293419 0 0 255
-0.06712246 -0.0266819 -0.3271828 0 0 255
-0.06712246 -0.02665234 -0.3250237 0 0 255
-0.06712246 -0.02662134 -0.3228607 0 0 255
-0.06712246 -0.02659035 -0.3207054 0 0 255
-0.06712341 -0.02655792 -0.3185425 0 0 255
-0.06712341 -0.0265255 -0.3163834 0 0 255
-0.06712341 -0.02649164 -0.3142204 0 0 255
-0.06712341 -0.02645826 -0.3120651 0 0 255
-0.06712341 -0.02642345 -0.309906 0 0 255
-0.06712341 -0.02638865 -0.3077431 0 0 255
-0.06712341 -0.02635241 -0.3055878 0 0 255
-0.06712341 -0.02631617 -0.3034248 0 0 255
-0.06712341 -0.02627897 -0.3012657 0 0 255
-0.06712341 -0.02624178 -0.2991028 0 0 255
-0.06712341 -0.02620411 -0.2969475 0 0 255
-0.06712341 -0.02616549 -0.2947884 0 0 255
-0.06712341 -0.02612638 -0.2926292 0 0 255
-0.06712341 -0.02608681 -0.2904625 0 0 255
-0.06712341 -0.02604675 -0.2883072 0 0 255
-0.06712341 -0.0260067 -0.2861481 0 0 255
-0.06712341 -0.02596569 -0.283989 0 0 255
-0.06712341 -0.02592468 -0.281826 0 0 255
-0.06712341 -0.02588272 -0.2796707 0 0 255
-0.06712341 -0.02584076 -0.2775116 0 0 255
-0.06712341 -0.02579832 -0.2753487 0 0 255
-0.06712341 -0.02575541 -0.2731857 0 0 255
-0.06712341 -0.02571249 -0.2710304 0 0 255
-0.06712341 -0.0256691 -0.2688713 0 0 255
-0.06712341 -0.02562523 -0.2667122 0 0 255
-0.06712341 -0.02558136 -0.2645493 0 0 255
-0.06712341 -0.02553749 -0.262394 0 0 255
-0.06712341 -0.02549267 -0.260231 0 0 255
-0.06712341 -0.02544785 -0.2580719 0 0 255
-0.06712341 -0.02540302 -0.255909 0 0 255
-0.06712341 -0.02535772 -0.2537537 0 0 255
-0.06712341 -0.02531242 -0.2515945 0 0 255
-0.06712341 -0.02526665 -0.2494354 0 0 255
-0.06712341 -0.02522039 -0.2472687 0 0 255
-0.06712341 -0.02517462 -0.2451134 0 0 255
-0.06712341 -0.02512836 -0.2429543 0 0 255
-0.06712341 -0.02508163 -0.2407951 0 0 255
-0.06712341 -0.02503538 -0.2386322 0 0 255
-0.06712341 -0.02498817 -0.2364769 0 0 255
-0.06712341 -0.02494097 -0.2343178 0 0 255
-0.06712341 -0.02489424 -0.2321548 0 0 255
-0.06712341 -0.02484655 -0.2299919 0 0 255
-0.06712341 -0.02479887 -0.2278366 0 0 255
-0.06712341 -0.02475166 -0.2256775 0 0 255
-0.06712341 -0.0247035 -0.2235146 0 0 255
-0.06712341 -0.02465582 -0.2213593 0 0 255
-0.06712341 -0.02460766 -0.2191963 0 0 255
-0.06712341 -0.0245595 -0.2170372 0 0 255
-0.06712341 -0.02451086 -0.2148743 0 0 255
-0.06712341 -0.02446222 -0.212719 0 0 255
-0.06712341 -0.02441359 -0.2105598 0 0 255
-0.06712341 -0.02436495 -0.2084007 0 0 255
-0.06712341 -0.02431631 -0.2062378 0 0 255
-0.06712341 -0.0242672 -0.2040787 0 0 255
-0.06712341 -0.02421808 -0.2019196 0 0 255
-0.06712341 -0.02416849 -0.1997604 0 0 255
-0.06712341 -0.02411938 -0.1975975 0 0 255
-0.06712341 -0.02406979 -0.1954422 0 0 255
-0.06712341 -0.0240202 -0.1932831 0 0 255
-0.06712341 -0.0239706 -0.1911201 0 0 255
-0.06712341 -0.02392101 -0.1889572 0 0 255
-0.06712341 -0.02387094 -0.1868019 0 0 255
-0.06712341 -0.02382088 -0.1846428 0 0 255
-0.06712341 -0.02377081 -0.1824837 0 0 255
-0.06712341 -0.02372074 -0.1803207 0 0 255
-0.06712341 -0.02367067 -0.1781654 0 0 255
-0.06712341 -0.02362013 -0.1760025 0 0 255
-0.06712341 -0.02356958 -0.1738434 0 0 255
-0.06712341 -0.02351904 -0.1716805 0 0 255
-0.06712341 -0.02346849 -0.1695251 0 0 255
-0.06712341 -0.02341795 -0.167366 0 0 255
-0.06712341 -0.0233674 -0.1652069 0 0 255
-0.06712341 -0.02331638 -0.1630402 0 0 255
-0.06712341 -0.02326536 -0.1608849 0 0 255
-0.06712341 -0.02321434 -0.1587257 0 0 255
-0.06712341 -0.02316332 -0.1565666 0 0 255
-0.06712341 -0.0231123 -0.1544037 0 0 255
-0.06712341 -0.0230608 -0.1522484 0 0 255
-0.06712341 -0.0230093 -0.1500893 0 0 255
-0.06712341 -0.02295685 -0.1479263 0 0 255
-0.06712341 -0.02290487 -0.1457634 0 0 255
-0.06712341 -0.0228529 -0.1436081 0 0 255
-0.06712341 -0.02280092 -0.141449 0 0 255
-0.06712341 -0.02274895 -0.139286 0 0 255
-0.06712341 -0.0226965 -0.1371269 0 0 255
-0.06712341 -0.02264404 -0.1349716 0 0 255
-0.06712341 -0.02259159 -0.1328087 0 0 255
-0.06712341 -0.02253914 -0.1306458 0 0 255
-0.06712341 -0.02248669 -0.1284866 0 0 255
-0.06712341 -0.02243423 -0.1263313 0 0 255
-0.06712341 -0.02238178 -0.1241722 0 0 255
-0.06712341 -0.02232885 -0.1220093 0 0 255
-0.06712341 -0.0222764 -0.1198463 0 0 255
-0.06712341 -0.02222347 -0.117691 0 0 255
-0.06712341 -0.02217054 -0.1155319 0 0 255
-0.06712341 -0.02211809 -0.113369 0 0 255
-0.06712341 -0.02206516 -0.1112137 0 0 255
-0.06712341 -0.02201223 -0.1090546 0 0 255
-0.06712341 -0.0219593 -0.1068954 0 0 255
-0.06712341 -0.0219059 -0.1047287 0 0 255
-0.06712341 -0.02185297 -0.1025734 0 0 255
-0.06712341 -0.02180004 -0.1004143 0 0 255
-0.06712341 -0.02174711 -0.09825516 0 0 255
-0.06712341 -0.02169371 -0.09609222 0 0 255
-0.06712341 -0.02164078 -0.09393692 0 0 255
-0.06712341 -0.02158785 -0.09177399 0 0 255
-0.06712341 -0.02153444 -0.08961487 0 0 255
-0.06712341 -0.02148104 -0.08745193 0 0 255
-0.06712341 -0.02142715 -0.08529663 0 0 255
-0.06712341 -0.02137327 -0.08313751 0 0 255
-0.06712341 -0.02131748 -0.08097839 0 0 255
-0.06712341 -0.02126026 -0.07881546 0 0 255
-0.06712341 -0.02120209 -0.07665634 0 0 255
-0.06712341 -0.02113962 -0.07449722 0 0 255
-0.06712341 -0.0210743 -0.0723381 0 0 255
-0.06712341 -0.02100563 -0.07017517 0 0 255
-0.06712341 -0.02092981 -0.06801987 0 0 255
-0.06712341 -0.02084494 -0.06586075 0 0 255
-0.06712341 -0.02075005 -0.06369781 0 0 255
-0.06712341 -0.02064037 -0.06153488 0 0 255
-0.06712341 -0.02051163 -0.05937958 0 0 255
-0.06712341 -0.02035427 -0.05722046 0 0 255
-0.06712341 -0.02015066 -0.05505753 0 0 255
-0.06712341 -0.01988125 -0.05289841 0 0 255
-0.06712341 -0.019485 -0.0507431 0 0 255
-0.06712341 -0.01880407 -0.04858017 0 0 255
-0.06712341 -0.01695395 -0.04641724 0 0 255
-0.06712341 -0.007913113 -0.04425812 0 0 0
-0.06712341 -0.008615017 -0.04210281 0 0 0
-0.06712341 -0.009146214 -0.0399437 0 0 0
-0.06712341 -0.009503365 -0.03778076 0 0 0
-0.06712341 -0.009823799 -0.03562546 0 0 0
-0.06712341 -0.01007557 -0.03346252 0 0 0
-0.06712341 -0.0103035 -0.03130341 0 0 0
-0.06712341 -0.01044226 -0.02914047 0 0 0
-0.06712341 -0.01058102 -0.02698517 0 0 0
-0.06712341 -0.01069927 -0.02482605 0 0 0
-0.06712341 -0.01077461 -0.02266693 0 0 0
-0.06712341 -0.0108304 -0.02050018 0 0 0
-0.06712341 -0.01088619 -0.01834488 0 0 0
-0.06712341 -0.01092291 -0.01618576 0 0 0
-0.06712341 -0.01093006 -0.01402664 0 0 0
-0.06712341 -0.01092768 -0.01186371 0 0 0
-0.06712341 -0.01092577 -0.009708405 0 0 0
-0.06712341 -0.01092625 -0.007549286 0 0 0
-0.06712341 -0.01090908 -0.005386353 0 0 0
-0.06712341 -0.0108695 -0.003223419 0 0 0
-0.06712341 -0.01082897 -0.001068115 0 0 0
-0.06712341 -0.01078796 0.001091003 0 0 0
-0.06712341 -0.01073265 0.003250122 0 0 0
-0.06712341 -0.010674 0.005413055 0 0 0
-0.06712341 -0.01061583 0.007572174 0 0 0
-0.06712341 -0.01056099 0.009731293 0 0 0
-0.06712341 -0.01049614 0.01189041 0 0 0
-0.06712341 -0.010427 0.01405334 0 0 0
-0.06712341 -0.01034737 0.01620865 0 0 0
-0.06712341 -0.01026773 0.01836777 0 0 0
-0.06712341 -0.01018286 0.0205307 0 0 0
-0.06712341 -0.01009464 0.02269363 0 0 0
-0.06712341 -0.01000977 0.02484894 0 0 0
-0.06712341 -0.009924412 0.02700806 0 0 0
-0.06712341 -0.009838581 0.02917099 0 0 0
-0.06712341 -0.009746075 0.03133011 0 0 0
-0.06712341 -0.009654522 0.03348541 0 0 0
-0.06712341 -0.009562492 0.03564835 0 0 0
-0.06712341 -0.009474754 0.03781128 0 0 0
-0.06712341 -0.009383678 0.0399704 0 0 0
-0.06712341 -0.009291649 0.0421257 0 0 0
-0.06712341 -0.009199619 0.04428482 0 0 0
-0.06712341 -0.00910759 0.04644775 0 0 0
-0.06712341 -0.009010792 0.04860306 0 0 0
-0.06712341 -0.008915901 0.05076599 0 0 0
-0.06712341 -0.008821487 0.05292511 0 0 0
-0.06712341 -0.008727074 0.05508804 0 0 0
-0.06712341 -0.008633137 0.05724335 0 0 0
-0.06712341 -0.008540154 0.05940247 0 0 0
-0.06712341 -0.008449554 0.06156158 0 0 0
-0.06712341 -0.008360386 0.06372833 0 0 0
-0.06712341 -0.008271694 0.06588364 0 0 0
-0.06712341 -0.00818491 0.06804276 0 0 0
-0.06712341 -0.00810051 0.07020187 0 0 0
-0.06712341 -0.00801754 0.07236481 0 0 0
-0.06712341 -0.007936478 0.07452011 0 0 0
-0.06712341 -0.007856846 0.07667923 0 0 0
-0.06712341 -0.007782936 0.07884216 0 0 0
-0.06712341 -0.007709503 0.0810051 0 0 0
-0.06712341 -0.007637024 0.0831604 0 0 0
-0.06712341 -0.007566452 0.08531952 0 0 0
-0.06712341 -0.007503033 0.08747864 0 0 0
-0.06712341 -0.007441044 0.08964157 0 0 0
-0.06712341 -0.007379055 0.09179688 0 0 0
-0.06712341 -0.007317066 0.09395981 0 0 0
-0.06712341 -0.00726366 0.09611893 0 0 0
-0.06712341 -0.007212162 0.09828186 0 0 0
-0.06712341 -0.00716114 0.1004372 0 0 0
-0.06712341 -0.007108688 0.1025963 0 0 0
-0.06712341 -0.007062912 0.1047592 0 0 0
-0.06712341 -0.007019997 0.1069221 0 0 0
-0.06712341 -0.006977081 0.1090775 0 0 0
-0.06712341 -0.006934643 0.1112366 0 0 0
-0.06712341 -0.00689888 0.1133995 0 0 0
-0.06712341 -0.006865978 0.1155586 0 0 0
-0.06712341 -0.006833553 0.1177139 0 0 0
-0.06712341 -0.006801128 0.119873 0 0 0
-0.06712341 -0.006775856 0.1220398 0 0 0
-0.06712341 -0.006752491 0.1241989 0 0 0
-0.06712341 -0.006729603 0.1263542 0 0 0
-0.06712341 -0.006707668 0.1285133 0 0 0
-0.06712341 -0.00669241 0.1306763 0 0 0
-0.06712341 -0.006677628 0.1328316 0 0 0
-0.06712341 -0.006663322 0.1349945 0 0 0
-0.06712341 -0.006652355 0.1371536 0 0 0
-0.06712341 -0.006645203 0.1393166 0 0 0
-0.06712341 -0.006638527 0.1414719 0 0 0
-0.06712341 -0.006632328 0.143631 0 0 0
-0.06712341 -0.006630898 0.1457901 0 0 0
-0.06712341 -0.006630898 0.147953 0 0 0
-0.06712341 -0.006631374 0.1501122 0 0 0
-0.06712341 -0.006632805 0.1522713 0 0 0
-0.06712341 -0.006639004 0.1544304 0 0 0
-0.06712341 -0.006645203 0.1565933 0 0 0
-0.06712341 -0.006651878 0.1587486 0 0 0
-0.06712341 -0.006661415 0.1609077 0 0 0
-0.06712341 -0.006672859 0.1630669 0 0 0
-0.06712341 -0.006683826 0.1652336 0 0 0
-0.06712341 -0.006695747 0.1673889 0 0 0
-0.06712341 -0.006710529 0.169548 0 0 0
-0.06712341 -0.006725788 0.1717072 0 0 0
-0.06712341 -0.00674057 0.1738701 0 0 0
-0.06712341 -0.006757259 0.1760254 0 0 0
-0.06712341 -0.006774426 0.1781883 0 0 0
-0.06712341 -0.006791592 0.1803474 0 0 0
-0.06712341 -0.006809235 0.1825104 0 0 0
-0.06712341 -0.006827831 0.1846657 0 0 0
-0.06712341 -0.006846428 0.1868248 0 0 0
-0.06712341 -0.006864548 0.1889877 0 0 0
-0.06712341 -0.006882668 0.1911469 0 0 0
-0.06712341 -0.006900787 0.193306 0 0 0
-0.06712341 -0.006918907 0.1954651 0 0 0
-0.06712341 -0.006936073 0.197628 0 0 0
-0.06712341 -0.006952763 0.1997871 0 0 0
-0.06712341 -0.006968975 0.2019424 0 0 0
-0.06712341 -0.006985188 0.2041016 0 0 0
-0.06712341 -0.006999016 0.2062683 0 0 0
-0.06712341 -0.007012844 0.2084274 0 0 0
-0.06712341 -0.007026196 0.2105827 0 0 0
-0.06712341 -0.007038593 0.2127419 0 0 0
-0.06712341 -0.007050514 0.2149048 0 0 0
-0.06712341 -0.007061958 0.2170601 0 0 0
-0.06712341 -0.007073402 0.2192192 0 0 0
-0.06712341 -0.00708437 0.2213821 0 0 0
-0.06712341 -0.007095337 0.2235451 0 0 0
-0.06712341 -0.007105827 0.2257004 0 0 0
-0.06712341 -0.007116795 0.2278595 0 0 0
-0.06712341 -0.007128239 0.2300186 0 0 0
-0.06712341 -0.007138729 0.2321815 0 0 0
-0.06712341 -0.00715065 0.2343407 0 0 0
-0.06712341 -0.007163525 0.2364998 0 0 0
-0.06712341 -0.007175922 0.2386589 0 0 0
-0.06712341 -0.007188797 0.2408218 0 0 0
-0.06712341 -0.007203579 0.2429771 0 0 0
-0.06712341 -0.007218838 0.2451363 0 0 0
-0.06712341 -0.007233143 0.2472954 0 0 0
-0.06712341 -0.007252216 0.2494621 0 0 0
-0.06712341 -0.007270813 0.2516174 0 0 0
-0.06712341 -0.007288933 0.2537766 0 0 0
-0.06712341 -0.007311821 0.2559357 0 0 0
-0.06712341 -0.007335663 0.2580986 0 0 0
-0.06712341 -0.007358551 0.2602539 0 0 0
-0.06712341 -0.007386684 0.2624168 0 0 0
-0.06712341 -0.007416725 0.264576 0 0 0
-0.06712341 -0.007445812 0.2667389 0 0 0
-0.06712341 -0.007480621 0.2688942 0 0 0
-0.06712341 -0.007518291 0.2710533 0 0 0
-0.06712341 -0.007555008 0.2732162 0 0 0
-0.06712341 -0.0075984 0.2753754 0 0 0
-0.06712341 -0.00764513 0.2775345 0 0 0
-0.06712341 -0.007690907 0.2796936 0 0 0
-0.06712341 -0.007745266 0.2818565 0 0 0
-0.06712341 -0.007802963 0.2840157 0 0 0
-0.06712341 -0.007859707 0.286171 0 0 0
-0.06712341 -0.007925034 0.2883301 0 0 0
-0.06712341 -0.007993221 0.290493 0 0 0
-0.06712341 -0.008059978 0.2926559 0 0 0
-0.06712341 -0.008142948 0.2948112 0 0 0
-0.06712341 -0.008224964 0.2969704 0 0 0
-0.06712341 -0.008312225 0.2991333 0 0 0
-0.06712341 -0.008413315 0.3012886 0 0 0
-0.06712341 -0.008508205 0.3034477 0 0 0
-0.06712341 -0.008627415 0.3056107 0 0 0
-0.06712341 -0.008742332 0.3077736 0 0 0
-0.06712341 -0.008871078 0.3099289 0 0 0
-0.06712341 -0.009009361 0.312088 0 0 0
-0.06712341 -0.009146214 0.3142471 0 0 0
-0.06712341 -0.009301662 0.3164101 0 0 0
-0.06712341 -0.009449482 0.3185654 0 0 0
-0.06712341 -0.009628773 0.3207283 0 0 0
-0.06712341 -0.009792805 0.3228874 0 0 0
-0.06712341 -0.009985924 0.3250504 0 0 0
-0.06712341 -0.01016378 0.3272057 0 0 0
-0.06712341 -0.01035595 0.3293648 0 0 0
-0.06712341 -0.01053476 0.3315239 0 0 0
-0.06712341 -0.0107255 0.3336906 0 0 0
-0.06712341 -0.01089287 0.3358459 0 0 0
-0.06712341 -0.01104259 0.3380051 0 0 0
-0.06712341 -0.01118517 0.3401642 0 0 0
-0.06712341 -0.01126623 0.3423271 0 0 0
-0.06712341 -0.01132059 0.3444824 0 0 0
-0.06712341 -0.01128578 0.3466415 0 0 0
-0.06712341 -0.01117134 0.3488045 255 0 0
-0.06712341 -0.0109663 0.3509674 255 0 0
-0.06712341 -0.01061773 0.3531227 255 0 0
-0.06712341 -0.01012182 0.3552818 255 0 0
-0.06712341 -0.009476185 0.3574448 255 0 0
-0.06712341 -0.008687973 0.3596039 255 0 0
-0.06712341 -0.00774765 0.361763 255 0 0
-0.06712341 -0.006662369 0.3639221 255 0 0
-0.06712341 -0.005424023 0.3660851 255 0 0
-0.06712341 -0.003961563 0.3682442 255 0 0
-0.06712341 -0.001966953 0.3703995 255 0 0
-0.06496334 -0.01465464 -0.4200516 0 0 255
-0.06496334 -0.02022839 -0.4178886 0 0 255
-0.06496334 -0.02305222 -0.4157257 0 0 255
-0.06496334 -0.02467871 -0.4135704 0 0 255
-0.06496334 -0.02568293 -0.4114113 0 0 255
-0.06496334 -0.0263238 -0.4092522 0 0 255
-0.06496334 -0.02674198 -0.4070892 0 0 255
-0.06496334 -0.02701426 -0.4049339 0 0 255
-0.06496334 -0.02718925 -0.402771 0 0 255
-0.06496334 -0.02729797 -0.4006119 0 0 255
-0.06496334 -0.02736378 -0.3984489 0 0 255
-0.06496334 -0.02739954 -0.3962936 0 0 255
-0.06496334 -0.02741671 -0.3941345 0 0 255
-0.06496334 -0.0274229 -0.3919716 0 0 255
-0.06496334 -0.02742481 -0.3898087 0 0 255
-0.06496334 -0.02742577 -0.3876534 0 0 255
-0.06496334 -0.02742624 -0.3854942 0 0 255
-0.06496334 -0.02742624 -0.3833313 0 0 255
-0.06496334 -0.02742481 -0.381176 0 0 255
-0.06496334 -0.02742243 -0.3790169 0 0 255
-0.06496334 -0.02741909 -0.3768578 0 0 255
-0.06496334 -0.02741432 -0.374691 0 0 255
-0.06496334 -0.02740812 -0.3725357 0 0 255
-0.06496334 -0.02740097 -0.3703766 0 0 255
-0.06496334 -0.02739191 -0.3682175 0 0 255
-0.06496334 -0.0273819 -0.3660545 0 0 255
-0.06496334 -0.02737045 -0.3638992 0 0 255
-0.06496334 -0.02735758 -0.3617401 0 0 255
-0.06496334 -0.02734375 -0.3595772 0 0 255
-0.06496334 -0.02732849 -0.3574142 0 0 255
-0.06496334 -0.02731228 -0.3552589 0 0 255
-0.06496334 -0.02729464 -0.3530998 0 0 255
-0.06496334 -0.02727652 -0.3509407 0 0 255
-0.06496334 -0.02725649 -0.3487778 0 0 255
-0.06496334 -0.02723598 -0.3466187 0 0 255
-0.06496334 -0.02721453 -0.3444595 0 0 255
-0.06496334 -0.02719164 -0.3423004 0 0 255
-0.06496334 -0.0271678 -0.3401375 0 0 255
-0.06496334 -0.02714348 -0.3379822 0 0 255
-0.06496334 -0.02711821 -0.3358231 0 0 255
-0.06496334 -0.02709198 -0.3336639 0 0 255
-0.06496334 -0.0270648 -0.3314972 0 0 255
-0.06496334 -0.02703714 -0.3293419 0 0 255
-0.06496334 -0.02700806 -0.3271828 0 0 255
-0.06496334 -0.02697897 -0.3250237 0 0 255
-0.06496334 -0.02694845 -0.3228607 0 0 255
-0.06496334 -0.02691793 -0.3207054 0 0 255
-0.06496429 -0.02688599 -0.3185425 0 0 255
-0.06496429 -0.02685404 -0.3163834 0 0 255
-0.06496429 -0.02682114 -0.3142204 0 0 255
-0.06496429 -0.02678776 -0.3120651 0 0 255
-0.06496429 -0.02675343 -0.309906 0 0 255
-0.06496429 -0.02671909 -0.3077431 0 0 255
-0.06496429 -0.02668381 -0.3055878 0 0 255
-0.06496429 -0.02664804 -0.3034248 0 0 255
-0.06496429 -0.0266118 -0.3012657 0 0 255
-0.06496429 -0.02657461 -0.2991028 0 0 255
-0.06496429 -0.02653742 -0.2969475 0 0 255
-0.06496429 -0.02649927 -0.2947884 0 0 255
-0.06496429 -0.0264616 -0.2926292 0 0 255
-0.06496429 -0.02642202 -0.2904625 0 0 255
-0.06496429 -0.02638292 -0.2883072 0 0 255
-0.06496429 -0.02634335 -0.2861481 0 0 255
-0.06496429 -0.02630281 -0.283989 0 0 255
-0.06496429 -0.02626276 -0.281826 0 0 255
-0.06496429 -0.02622128 -0.2796707 0 0 255
-0.06496429 -0.02617979 -0.2775116 0 0 255
-0.06496429 -0.02613831 -0.2753487 0 0 255
-0.06496429 -0.02609587 -0.2731857 0 0 255
-0.06496429 -0.02605391 -0.2710304 0 0 255
-0.06496429 -0.02601099 -0.2688713 0 0 255
-0.06496429 -0.02596807 -0.2667122 0 0 255
-0.06496429 -0.02592468 -0.2645493 0 0 255
-0.06496429 -0.02588129 -0.262394 0 0 255
-0.06496429 -0.02583694 -0.260231 0 0 255
-0.06496429 -0.02579308 -0.2580719 0 0 255
-0.06496429 -0.02574873 -0.255909 0 0 255
-0.06496429 -0.02570438 -0.2537537 0 0 255
-0.06496429 -0.02565956 -0.2515945 0 0 255
-0.06496429 -0.02561474 -0.2494354 0 0 255
-0.06496429 -0.02556944 -0.2472687 0 0 255
-0.06496429 -0.02552414 -0.2451134 0 0 255
-0.06496429 -0.02547836 -0.2429543 0 0 255
-0.06496429 -0.02543259 -0.2407951 0 0 255
-0.06496429 -0.02538681 -0.2386322 0 0 255
-0.06496429 -0.02534056 -0.2364769 0 0 255
-0.06496429 -0.0252943 -0.2343178 0 0 255
-0.06496429 -0.02524757 -0.2321548 0 0 255
-0.06496429 -0.02520084 -0.2299919 0 0 255
-0.06496429 -0.02515411 -0.2278366 0 0 255
-0.06496429 -0.02510738 -0.2256775 0 0 255
-0.06496429 -0.02506018 -0.2235146 0 0 255
-0.06496429 -0.02501297 -0.2213593 0 0 255
-0.06496429 -0.02496576 -0.2191963 0 0 255
-0.06496429 -0.02491808 -0.2170372 0 0 255
-0.06496429 -0.0248704 -0.2148743 0 0 255
-0.06496429 -0.02482271 -0.212719 0 0 255
-0.06496429 -0.02477455 -0.2105598 0 0 255
-0.06496429 -0.02472591 -0.2084007 0 0 255
-0.06496429 -0.02467728 -0.2062378 0 0 255
-0.06496429 -0.02462912 -0.2040787 0 0 255
-0.06496429 -0.02458 -0.2019196 0 0 255
-0.06496429 -0.02453136 -0.1997604 0 0 255
-0.06496429 -0.02448273 -0.1975975 0 0 255
-0.06496429 -0.02443361 -0.1954422 0 0 255
-0.06496429 -0.0243845 -0.1932831 0 0 255
-0.06496429 -0.02433491 -0.1911201 0 0 255
-0.06496429 -0.02428579 -0.1889572 0 0 255
-0.06496429 -0.0242362 -0.1868019 0 0 255
-0.06496429 -0.02418661 -0.1846428 0 0 255
-0.06496429 -0.02413702 -0.1824837 0 0 255
-0.06496429 -0.02408743 -0.1803207 0 0 255
-0.06496429 -0.02403784 -0.1781654 0 0 255
-0.06496429 -0.02398777 -0.1760025 0 0 255
-0.06496429 -0.0239377 -0.1738434 0 0 255
-0.06496429 -0.02388763 -0.1716805 0 0 255
-0.06496429 -0.02383757 -0.1695251 0 0 255
-0.06496429 -0.02378702 -0.167366 0 0 255
-0.06496429 -0.02373695 -0.1652069 0 0 255
-0.06496429 -0.02368641 -0.1630402 0 0 255
-0.06496429 -0.02363586 -0.1608849 0 0 255
-0.06496429 -0.02358532 -0.1587257 0 0 255
-0.06496429 -0.02353477 -0.1565666 0 0 255
-0.06496429 -0.02348423 -0.1544037 0 0 255
-0.06496429 -0.02343369 -0.1522484 0 0 255
-0.06496429 -0.02338266 -0.1500893 0 0 255
-0.06496429 -0.02333164 -0.1479263 0 0 255
-0.06496429 -0.02328062 -0.1457634 0 0 255
-0.06496429 -0.0232296 -0.1436081 0 0 255
-0.06496429 -0.02317858 -0.141449 0 0 255
-0.06496429 -0.02312756 -0.139286 0 0 255
-0.06496429 -0.02307606 -0.1371269 0 0 255
-0.06496429 -0.02302504 -0.1349716 0 0 255
-0.06496429 -0.02297354 -0.1328087 0 0 255
-0.06496429 -0.02292204 -0.1306458 0 0 255
-0.06496429 -0.02287054 -0.1284866 0 0 255
-0.06496429 -0.02281952 -0.1263313 0 0 255
-0.06496429 -0.02276754 -0.1241722 0 0 255
-0.06496429 -0.02271605 -0.1220093 0 0 255
-0.06496429 -0.02266455 -0.1198463 0 0 255
-0.06496429 -0.02261257 -0.117691 0 0 255
-0.06496429 -0.02256107 -0.1155319 0 0 255
-0.06496429 -0.0225091 -0.113369 0 0 255
-0.06496429 -0.0224576 -0.1112137 0 0 255
-0.06496429 -0.02240562 -0.1090546 0 0 255
-0.06496429 -0.02235365 -0.1068954 0 0 255
-0.06496429 -0.02230167 -0.1047287 0 0 255
-0.06496429 -0.0222497 -0.1025734 0 0 255
-0.06496429 -0.02219772 -0.1004143 0 0 255
-0.06496429 -0.02214575 -0.09825516 0 0 255
-0.06496429 -0.02209377 -0.09609222 0 0 255
-0.06496429 -0.0220418 -0.09393692 0 0 255
-0.06496429 -0.02198982 -0.09177399 0 0 255
-0.06496429 -0.02193737 -0.08961487 0 0 255
-0.06496429 -0.0218854 -0.08745193 0 0 255
-0.06496429 -0.02183247 -0.08529663 0 0 255
-0.06496429 -0.02177954 -0.08313751 0 0 255
-0.06496429 -0.0217247 -0.08097839 0 0 255
-0.06496429 -0.02166891 -0.07881546 0 0 255
-0.06496429 -0.02161169 -0.07665634 0 0 255
-0.06496429 -0.02155066 -0.07449722 0 0 255
-0.06496429 -0.02148676 -0.0723381 0 0 255
-0.06496429 -0.02141905 -0.07017517 0 0 255
-0.06496429 -0.02134466 -0.06801987 0 0 255
-0.06496429 -0.02126217 -0.06586075 0 0 255
-0.06496429 -0.02116919 -0.06369781 0 0 255
-0.06496429 -0.0210619 -0.06153488 0 0 255
-0.06496429 -0.02093554 -0.05937958 0 0 255
-0.06496429 -0.02078199 -0.05722046 0 0 255
-0.06496429 -0.02058268 -0.05505753 0 0 255
-0.06496429 -0.02031898 -0.05289841 0 0 255
-0.06496429 -0.01993227 -0.0507431 0 0 255
-0.06496429 -0.01926756 -0.04858017 0 0 255
-0.06496429 -0.01743412 -0.04641724 0 0 255
-0.06496429 -0.01419926 -0.04425812 0 0 0
-0.06496429 -0.01421547 -0.04210281 0 0 0
-0.06496429 -0.01420021 -0.0399437 0 0 0
-0.06496429 -0.01418495 -0.03778076 0 0 0
-0.06496429 -0.01415873 -0.03562546 0 0 0
-0.06496429 -0.01411629 -0.03346252 0 0 0
-0.06496429 -0.01406908 -0.03130341 0 0 0
-0.06496429 -0.01401043 -0.02914047 0 0 0
-0.06496429 -0.0139432 -0.02698517 0 0 0
-0.06496429 -0.01387596 -0.02482605 0 0 0
-0.06496429 -0.01380396 -0.02266693 0 0 0
-0.06496429 -0.01371765 -0.02050018 0 0 0
-0.06496429 -0.0136342 -0.01834488 0 0 0
-0.06496429 -0.01355124 -0.01618576 0 0 0
-0.06496429 -0.01345634 -0.01402664 0 0 0
-0.06496429 -0.01335764 -0.01186371 0 0 0
-0.06496429 -0.01325989 -0.009708405 0 0 0
-0.06496429 -0.01316404 -0.007549286 0 0 0
-0.06496429 -0.01305532 -0.005386353 0 0 0
-0.06496429 -0.01294613 -0.003223419 0 0 0
-0.06496429 -0.01283741 -0.001068115 0 0 0
-0.06496429 -0.01273012 0.001091003 0 0 0
-0.06496429 -0.01261377 0.003250122 0 0 0
-0.06496429 -0.01249743 0.005413055 0 0 0
-0.06496429 -0.01238108 0.007572174 0 0 0
-0.06496429 -0.01226234 0.009731293 0 0 0
-0.06496429 -0.01213932 0.01189041 0 0 0
-0.06496429 -0.01201582 0.01405334 0 0 0
-0.06496429 -0.0118928 0.01620865 0 0 0
-0.06496429 -0.01176929 0.01836777 0 0 0
-0.06496429 -0.01164341 0.0205307 0 0 0
-0.06496429 -0.011518 0.02269363 0 0 0
-0.06496429 -0.01139307 0.02484894 0 0 0
-0.06496429 -0.01126814 0.02700806 0 0 0
-0.06496429 -0.01114273 0.02917099 0 0 0
-0.06496429 -0.01101589 0.03133011 0 0 0
-0.06496429 -0.01089144 0.03348541 0 0 0
-0.06496429 -0.01076698 0.03564835 0 0 0
-0.06496429 -0.01064253 0.03781128 0 0 0
-0.06496429 -0.01051855 0.0399704 0 0 0
-0.06496429 -0.01039457 0.0421257 0 0 0
-0.06496429 -0.01027298 0.04428482 0 0 0
-0.06496429 -0.01015139 0.04644775 0 0 0
-0.06496429 -0.01003075 0.04860306 0 0 0
-0.06496429 -0.009912014 0.05076599 0 0 0
-0.06496429 -0.009793758 0.05292511 0 0 0
-0.06496429 -0.009676933 0.05508804 0 0 0
-0.06496429 -0.009560108 0.05724335 0 0 0
-0.06496429 -0.009448528 0.05940247 0 0 0
-0.06496429 -0.009336948 0.06156158 0 0 0
-0.06496429 -0.009226322 0.06372833 0 0 0
-0.06496429 -0.009117126 0.06588364 0 0 0
-0.06496429 -0.009011745 0.06804276 0 0 0
-0.06496429 -0.008910656 0.07020187 0 0 0
-0.06496429 -0.008809566 0.07236481 0 0 0
-0.06496429 -0.008709908 0.07452011 0 0 0
-0.06496429 -0.008611679 0.07667923 0 0 0
-0.06496429 -0.008522987 0.07884216 0 0 0
-0.06496429 -0.008434772 0.0810051 0 0 0
-0.06496429 -0.008346558 0.0831604 0 0 0
-0.06496429 -0.008259296 0.08531952 0 0 0
-0.06496429 -0.008182526 0.08747864 0 0 0
-0.06496429 -0.008106709 0.08964157 0 0 0
-0.06496429 -0.008031368 0.09179688 0 0 0
-0.06496429 -0.007956028 0.09395981 0 0 0
-0.06496429 -0.007890224 0.09611893 0 0 0
-0.06496429 -0.007827282 0.09828186 0 0 0
-0.06496429 -0.007763863 0.1004372 0 0 0
-0.06496429 -0.00770092 0.1025963 0 0 0
-0.06496429 -0.007647038 0.1047592 0 0 0
-0.06496429 -0.007595539 0.1069221 0 0 0
-0.06496429 -0.007544041 0.1090775 0 0 0
-0.06496429 -0.007493019 0.1112366 0 0 0
-0.06496429 -0.007451057 0.1133995 0 0 0
-0.06496429 -0.007411003 0.1155586 0 0 0
-0.06496429 -0.007371426 0.1177139 0 0 0
-0.06496429 -0.007331371 0.119873 0 0 0
-0.06496429 -0.007301331 0.1220398 0 0 0
-0.06496429 -0.007272243 0.1241989 0 0 0
-0.06496429 -0.00724268 0.1263542 0 0 0
-0.06496429 -0.007215023 0.1285133 0 0 0
-0.06496429 -0.00719595 0.1306763 0 0 0
-0.06496429 -0.007176399 0.1328316 0 0 0
-0.06496429 -0.007156372 0.1349945 0 0 0
-0.06496429 -0.007140636 0.1371536 0 0 0
-0.06496429 -0.007129669 0.1393166 0 0 0
-0.06496429 -0.007119179 0.1414719 0 0 0
-0.06496429 -0.007108212 0.143631 0 0 0
-0.06496429 -0.00710392 0.1457901 0 0 0
-0.06496429 -0.007100582 0.147953 0 0 0
-0.06496429 -0.007097721 0.1501122 0 0 0
-0.06496429 -0.007096767 0.1522713 0 0 0
-0.06496429 -0.007100582 0.1544304 0 0 0
-0.06496429 -0.007104397 0.1565933 0 0 0
-0.06496429 -0.007108212 0.1587486 0 0 0
-0.06496429 -0.007115841 0.1609077 0 0 0
-0.06496429 -0.007125378 0.1630669 0 0 0
-0.06496429 -0.007134914 0.1652336 0 0 0
-0.06496429 -0.007145405 0.1673889 0 0 0
-0.06496429 -0.007159233 0.169548 0 0 0
-0.06496429 -0.007173061 0.1717072 0 0 0
-0.06496429 -0.00718689 0.1738701 0 0 0
-0.06496429 -0.007203102 0.1760254 0 0 0
-0.06496429 -0.007219791 0.1781883 0 0 0
-0.06496429 -0.007236958 0.1803474 0 0 0
-0.06496429 -0.007254124 0.1825104 0 0 0
-0.06496429 -0.00727272 0.1846657 0 0 0
-0.06496429 -0.00729084 0.1868248 0 0 0
-0.06496429 -0.007309437 0.1889877 0 0 0
-0.06496429 -0.007328033 0.1911469 0 0 0
-0.06496429 -0.00734663 0.193306 0 0 0
-0.06496429 -0.00736475 0.1954651 0 0 0
-0.06496429 -0.00738287 0.197628 0 0 0
-0.06496429 -0.007400036 0.1997871 0 0 0
-0.06496429 -0.007417202 0.2019424 0 0 0
-0.06496429 -0.007433891 0.2041016 0 0 0
-0.06496429 -0.00744915 0.2062683 0 0 0
-0.06496429 -0.007463932 0.2084274 0 0 0
-0.06496429 -0.007478714 0.2105827 0 0 0
-0.06496429 -0.007492065 0.2127419 0 0 0
-0.06496429 -0.007505417 0.2149048 0 0 0
-0.06496429 -0.007518768 0.2170601 0 0 0
-0.06496429 -0.007531643 0.2192192 0 0 0
-0.06496429 -0.007544518 0.2213821 0 0 0
-0.06496429 -0.007557392 0.2235451 0 0 0
-0.06496429 -0.007570267 0.2257004 0 0 0
-0.06496429 -0.007584095 0.2278595 0 0 0
-0.06496429 -0.007597446 0.2300186 0 0 0
-0.06496429 -0.007611275 0.2321815 0 0 0
-0.06496429 -0.007626057 0.2343407 0 0 0
-0.06496429 -0.007641792 0.2364998 0 0 0
-0.06496429 -0.007657528 0.2386589 0 0 0
-0.06496429 -0.007674694 0.2408218 0 0 0
-0.06496429 -0.007693291 0.2429771 0 0 0
-0.06496429 -0.007712364 0.2451363 0 0 0
-0.06496429 -0.007731915 0.2472954 0 0 0
-0.06496429 -0.007755756 0.2494621 0 0 0
-0.06496429 -0.007779121 0.2516174 0 0 0
-0.06496429 -0.007802963 0.2537766 0 0 0
-0.06496429 -0.00783205 0.2559357 0 0 0
-0.06496429 -0.007862091 0.2580986 0 0 0
-0.06496429 -0.007891655 0.2602539 0 0 0
-0.06496429 -0.007926941 0.2624168 0 0 0
-0.06496429 -0.007964134 0.264576 0 0 0
-0.06496429 -0.008001328 0.2667389 0 0 0
-0.06496429 -0.008043766 0.2688942 0 0 0
-0.06496429 -0.008090019 0.2710533 0 0 0
-0.06496429 -0.008136749 0.2732162 0 0 0
-0.06496429 -0.008189678 0.2753754 0 0 0
-0.06496429 -0.008247375 0.2775345 0 0 0
-0.06496429 -0.008305073 0.2796936 0 0 0
-0.06496429 -0.008371353 0.2818565 0 0 0
-0.06496429 -0.008442402 0.2840157 0 0 0
-0.06496429 -0.008512974 0.286171 0 0 0
-0.06496429 -0.008597374 0.2883301 0 0 0
-0.06496429 -0.008684635 0.290493 0 0 0
-0.06496429 -0.008771896 0.2926559 0 0 0
-0.06496429 -0.008877754 0.2948112 0 0 0
-0.06496429 -0.008983135 0.2969704 0 0 0
-0.06496429 -0.009097576 0.2991333 0 0 0
-0.06496429 -0.009225845 0.3012886 0 0 0
-0.06496429 -0.00935173 0.3034477 0 0 0
-0.06496429 -0.009504318 0.3056107 0 0 0
-0.06496429 -0.009656429 0.3077736 0 0 0
-0.06496429 -0.00982523 0.3099289 0 0 0
-0.06496429 -0.01000834 0.312088 0 0 0
-0.06496429 -0.01019955 0.3142471 0 0 0
-0.06496429 -0.01041555 0.3164101 0 0 0
-0.06496429 -0.01063251 0.3185654 0 0 0
-0.06496429 -0.01088095 0.3207283 0 0 0
-0.06496429 -0.011127 0.3228874 0 0 0
-0.06496429 -0.01141214 0.3250504 0 0 0
-0.06496429 -0.01169443 0.3272057 255 0 0
-0.06496429 -0.0120163 0.3293648 255 0 0
-0.06496429 -0.01234388 0.3315239 255 0 0
-0.06496429 -0.01270056 0.3336906 255 0 0
-0.06496429 -0.01307011 0.3358459 255 0 0
-0.06496429 -0.01344919 0.3380051 255 0 0
-0.06496429 -0.01386166 0.3401642 255 0 0
-0.06496429 -0.01428175 0.3423271 255 0 0
-0.06496429 -0.01471233 0.3444824 255 0 0
-0.06496429 -0.01515007 0.3466415 255 0 0
-0.06496429 -0.01559067 0.3488045 255 0 0
-0.06496429 -0.01600456 0.3509674 255 0 0
-0.06496429 -0.01641703 0.3531227 255 0 0
-0.06496429 -0.01677608 0.3552818 255 0 0
-0.06496429 -0.01708984 0.3574448 255 0 0
-0.06496429 -0.0173111 0.3596039 255 0 0
-0.06496429 -0.01745129 0.361763 255 0 0
-0.06496429 -0.01750278 0.3639221 255 0 0
-0.06496429 -0.01747084 0.3660851 255 0 0
-0.06496429 -0.01732826 0.3682442 255 0 0
-0.06496429 -0.01713657 0.3703995 255 0 0
-0.06496429 -0.016922 0.3725586 255 0 0
-0.06496429 -0.0166769 0.3747215 255 0 0
-0.06496429 -0.01640558 0.3768845 255 0 0
-0.06496429 -0.01619101 0.3790398 255 0 0
-0.06496429 -0.01591682 0.3811989 255 0 0
-0.06496429 -0.01574135 0.3833618 255 0 0
-0.06496429 -0.01549339 0.3855171 255 0 0
-0.06496429 -0.01533175 0.3876762 255 0 0
-0.06496429 -0.0151515 0.3898354 255 0 0
-0.06496429 -0.01495934 0.3920021 255 0 0
-0.06496429 -0.01482534 0.3941574 255 0 0
-0.06496429 -0.01461029 0.3963165 255 0 0
-0.06496429 -0.01435709 0.3984756 255 0 0
-0.06496429 -0.01410723 0.4006386 255 0 0
-0.06496429 -0.01369905 0.4027939 255 0 0
-0.06496429 -0.01311255 0.4049568 255 0 0
-0.06496429 -0.01244545 0.4071159 255 0 0
-0.06496429 -0.01132345 0.4092789 255 0 0
-0.06496429 -0.009962559 0.4114342 255 0 0
-0.06496429 -0.007952213 0.4135933 255 0 0
-0.06496429 -0.005227566 0.4157524 255 0 0
-0.06280327 -0.01506948 -0.4200516 0 0 255
-0.06280327 -0.02051449 -0.4178886 0 0 255
-0.06280327 -0.02328157 -0.4157257 0 0 255
-0.06280327 -0.02488279 -0.4135704 0 0 255
-0.06280327 -0.02587509 -0.4114113 0 0 255
-0.06280327 -0.02650976 -0.4092522 0 0 255
-0.06280327 -0.02692461 -0.4070892 0 0 255
-0.06280327 -0.02719498 -0.4049339 0 0 255
-0.06280327 -0.02736855 -0.402771 0 0 255
-0.06280327 -0.02747726 -0.4006119 0 0 255
-0.06280327 -0.02754259 -0.3984489 0 0 255
-0.06280327 -0.02757788 -0.3962936 0 0 255
-0.06280327 -0.02759457 -0.3941345 0 0 255
-0.06280327 -0.02760124 -0.3919716 0 0 255
-0.06280327 -0.02760315 -0.3898087 0 0 255
-0.06280327 -0.0276041 -0.3876534 0 0 255
-0.06280327 -0.02760458 -0.3854942 0 0 255
-0.06280327 -0.0276041 -0.3833313 0 0 255
-0.06280327 -0.02760315 -0.381176 0 0 255
-0.06280327 -0.02760077 -0.3790169 0 0 255
-0.06280327 -0.02759743 -0.3768578 0 0 255
-0.06280327 -0.02759266 -0.374691 0 0 255
-0.06280327 -0.02758646 -0.3725357 0 0 255
-0.06280327 -0.02757931 -0.3703766 0 0 255
-0.06280327 -0.02757025 -0.3682175 0 0 255
-0.06280327 -0.02756023 -0.3660545 0 0 255
-0.06280327 -0.02754879 -0.3638992 0 0 255
-0.06280327 -0.02753639 -0.3617401 0 0 255
-0.06280327 -0.02752256 -0.3595772 0 0 255
-0.06280327 -0.02750731 -0.3574142 0 0 255
-0.06280327 -0.02749109 -0.3552589 0 0 255
-0.06280327 -0.02747345 -0.3530998 0 0 255
-0.06280327 -0.02745533 -0.3509407 0 0 255
-0.06280327 -0.0274353 -0.3487778 0 0 255
-0.06280327 -0.0274148 -0.3466187 0 0 255
-0.06280327 -0.02739334 -0.3444595 0 0 255
-0.06280327 -0.02737045 -0.3423004 0 0 255
-0.06280327 -0.02734709 -0.3401375 0 0 255
-0.06280327 -0.02732277 -0.3379822 0 0 255
-0.06280327 -0.0272975 -0.3358231 0 0 255
-0.06280327 -0.02727175 -0.3336639 0 0 255
-0.06280327 -0.02724409 -0.3314972 0 0 255
-0.06280327 -0.02721691 -0.3293419 0 0 255
-0.06280327 -0.0271883 -0.3271828 0 0 255
-0.06280327 -0.02715921 -0.3250237 0 0 255
-0.06280327 -0.0271287 -0.3228607 0 0 255
-0.06280327 -0.02709818 -0.3207054 0 0 255
-0.06280422 -0.02706671 -0.3185425 0 0 255
-0.06280422 -0.02703476 -0.3163834 0 0 255
-0.06280422 -0.02700186 -0.3142204 0 0 255
-0.06280422 -0.02696896 -0.3120651 0 0 255
-0.06280422 -0.02693462 -0.309906 0 0 255
-0.06280422 -0.02690077 -0.3077431 0 0 255
-0.06280422 -0.02686501 -0.3055878 0 0 255
-0.06280422 -0.02682972 -0.3034248 0 0 255
-0.06280422 -0.02679348 -0.3012657 0 0 255
-0.06280422 -0.02675676 -0.2991028 0 0 255
-0.06280422 -0.02671957 -0.2969475 0 0 255
-0.06280422 -0.0266819 -0.2947884 0 0 255
-0.06280422 -0.02664375 -0.2926292 0 0 255
-0.06280422 -0.02660465 -0.2904625 0 0 255
-0.06280422 -0.02656555 -0.2883072 0 0 255
-0.06280422 -0.02652597 -0.2861481 0 0 255
-0.06280422 -0.02648592 -0.283989 0 0 255
-0.06280422 -0.02644587 -0.281826 0 0 255
-0.06280422 -0.02640486 -0.2796707 0 0 255
-0.06280422 -0.02636337 -0.2775116 0 0 255
-0.06280422 -0.02632189 -0.2753487 0 0 255
-0.06280422 -0.02627993 -0.2731857 0 0 255
-0.06280422 -0.02623796 -0.2710304 0 0 255
-0.06280422 -0.02619553 -0.2688713 0 0 255
-0.06280422 -0.02615261 -0.2667122 0 0 255
-0.06280422 -0.02610922 -0.2645493 0 0 255
-0.06280422 -0.02606583 -0.262394 0 0 255
-0.06280422 -0.02602243 -0.260231 0 0 255
-0.06280422 -0.02597857 -0.2580719 0 0 255
-0.06280422 -0.02593422 -0.255909 0 0 255
-0.06280422 -0.02588987 -0.2537537 0 0 255
-0.06280422 -0.02584553 -0.2515945 0 0 255
-0.06280422 -0.0258007 -0.2494354 0 0 255
-0.06280422 -0.02575541 -0.2472687 0 0 255
-0.06280422 -0.02571058 -0.2451134 0 0 255
