0.004224777 0.07678175 0.4121094 0 255 0
0.00422287 0.07678175 0.4160156 0 255 0
0.004220963 0.07678175 0.4199219 0 255 0
0.004219055 0.07678175 0.4238281 0 255 0
0.004217148 0.07678175 0.4277344 0 255 0
0.00421524 0.07678175 0.4316406 0 255 0
0.004213333 0.07678175 0.4355469 0 255 0
0.004212379 0.07678175 0.4394531 0 255 0
0.004210472 0.07678175 0.4433594 0 255 0
0.004208565 0.07678175 0.4472656 0 255 0
0.004206657 0.07678175 0.4511719 0 255 0
0.00420475 0.07678175 0.4550781 0 255 0
0.004202843 0.07678175 0.4589844 0 255 0
0.004200935 0.07678175 0.4628906 0 255 0
0.004199982 0.07678175 0.4667969 0 255 0
0.004198074 0.07678175 0.4707031 0 255 0
0.004196167 0.07678175 0.4746094 0 255 0
0.00419426 0.07678175 0.4785156 0 255 0
0.004192352 0.07678175 0.4824219 0 255 0
0.004190445 0.07678175 0.4863281 0 255 0
0.004188538 0.07678175 0.4902344 0 255 0
0.004187584 0.07678175 0.4941406 0 255 0
0.004185677 0.07678175 0.4980469 0 255 0
0.004185677 0.07678175 0.5019531 0 255 0
0.00418663 0.07678175 0.5058594 0 255 0
0.004187584 0.07678175 0.5097656 0 255 0
0.004189491 0.07678175 0.5136719 0 255 0
0.004190445 0.07678175 0.5175781 0 255 0
0.004193306 0.07678175 0.5214844 0 255 0
0.004195213 0.07678175 0.5253906 0 255 0
0.004197121 0.07678175 0.5292969 0 255 0
0.004199982 0.07678175 0.5332031 0 255 0
0.004201889 0.07678175 0.5371094 0 255 0
0.004203796 0.07678175 0.5410156 0 255 0
0.004206657 0.07678175 0.5449219 0 255 0
0.004208565 0.07678175 0.5488281 0 255 0
0.004210472 0.07678175 0.5527344 0 255 0
0.004212379 0.07678175 0.5566406 0 255 0
0.00421524 0.07678175 0.5605469 0 255 0
0.004217148 0.07678175 0.5644531 0 255 0
0.004219055 0.07678175 0.5683594 0 255 0
0.004221916 0.07678175 0.5722656 0 255 0
0.004223824 0.07678175 0.5761719 0 255 0
0.004225731 0.07678175 0.5800781 0 255 0
0.004228592 0.07678175 0.5839844 0 255 0
0.004230499 0.07678175 0.5878906 0 255 0
0.004232407 0.07678175 0.5917969 0 255 0
0.004234314 0.07678175 0.5957031 0 255 0
0.004237175 0.07678175 0.5996094 0 255 0
0.004239082 0.07678175 0.6035156 0 255 0
0.00424099 0.07678175 0.6074219 0 255 0
0.004243851 0.07678175 0.6113281 0 255 0
0.004245758 0.07678175 0.6152344 0 255 0
0.004247665 0.07678175 0.6191406 0 255 0
0.004250526 0.07678175 0.6230469 0 255 0
0.004252434 0.07678175 0.6269531 0 255 0
0.004254341 0.07678175 0.6308594 0 255 0
0.004256248 0.07678175 0.6347656 0 255 0
0.004259109 0.07678175 0.6386719 0 255 0
0.004260063 0.07678175 0.6425781 0 255 0
0.004261971 0.07678175 0.6464844 0 255 0
0.004262924 0.07678175 0.6503906 0 255 0
0.004264832 0.07678175 0.6542969 0 255 0
0.004265785 0.07678175 0.6582031 0 255 0
0.004265785 0.07678175 0.6621094 0 255 0
0.004263878 0.07678175 0.6660156 0 255 0
0.004261971 0.07678175 0.6699219 0 255 0
0.004260063 0.07678175 0.6738281 0 255 0
0.004258156 0.07678175 0.6777344 0 255 0
0.004256248 0.07678175 0.6816406 0 255 0
0.004254341 0.07678175 0.6855469 0 255 0
0.004252434 0.07678175 0.6894531 0 255 0
0.004250526 0.07678175 0.6933594 0 255 0
0.004248619 0.07678175 0.6972656 0 255 0
0.004246712 0.07678175 0.7011719 0 255 0
0.004244804 0.07678175 0.7050781 0 255 0
0.004242897 0.07678175 0.7089844 0 255 0
0.00424099 0.07678175 0.7128906 0 255 0
0.004239082 0.07678175 0.7167969 0 255 0
0.004237175 0.07678175 0.7207031 0 255 0
0.004235268 0.07678175 0.7246094 0 255 0
0.00423336 0.07678175 0.7285156 0 255 0
0.004231453 0.07678175 0.7324219 0 255 0
0.004229546 0.07678175 0.7363281 0 255 0
0.004227638 0.07678175 0.7402344 0 255 0
0.004225731 0.07678175 0.7441406 0 255 0
0.004223824 0.07678175 0.7480469 0 255 0
0.00422287 0.07678175 0.7519531 0 255 0
0.004220963 0.07678175 0.7558594 0 255 0
0.00422287 0.07678175 0.7597656 0 255 0
0.004223824 0.07678175 0.7636719 0 255 0
0.004225731 0.07678175 0.7675781 0 255 0
0.004226685 0.07678175 0.7714844 0 255 0
0.004228592 0.07678175 0.7753906 0 255 0
0.004231453 0.07678175 0.7792969 0 255 0
0.00423336 0.07678175 0.7832031 0 255 0
0.004235268 0.07678175 0.7871094 0 255 0
0.004238129 0.07678175 0.7910156 0 255 0
0.004240036 0.07678175 0.7949219 0 255 0
0.004241943 0.07678175 0.7988281 0 255 0
0.004243851 0.07678175 0.8027344 0 255 0
0.004246712 0.07678175 0.8066406 0 255 0
0.004248619 0.07678175 0.8105469 0 255 0
0.004250526 0.07678175 0.8144531 0 255 0
0.004253387 0.07678175 0.8183594 0 255 0
0.004255295 0.07678175 0.8222656 0 255 0
0.004257202 0.07678175 0.8261719 0 255 0
0.004260063 0.07678175 0.8300781 0 255 0
0.004261971 0.07678175 0.8339844 0 255 0
0.004263878 0.07678175 0.8378906 0 255 0
0.004266739 0.07678175 0.8417969 0 255 0
0.004268646 0.07678175 0.8457031 0 255 0
0.004270554 0.07678175 0.8496094 0 255 0
0.004273415 0.07678175 0.8535156 0 255 0
0.004275322 0.07678175 0.8574219 0 255 0
0.004277229 0.07678175 0.8613281 0 255 0
0.004279137 0.07678175 0.8652344 0 255 0
0.004281044 0.07678175 0.8691406 0 255 0
0.004281998 0.07678175 0.8730469 0 255 0
0.004283905 0.07678175 0.8769531 0 255 0
0.004284859 0.07678175 0.8808594 0 255 0
0.004282951 0.07678175 0.8847656 0 255 0
0.00428009 0.07678175 0.8886719 0 255 0
0.004277229 0.07678175 0.8925781 0 255 0
0.004273415 0.07678175 0.8964844 0 255 0
0.004270554 0.07678175 0.9003906 0 255 0
0.004267693 0.07678175 0.9042969 0 255 0
0.004264832 0.07678175 0.9082031 0 255 0
0.004261971 0.07678175 0.9121094 0 255 0
0.004258156 0.07678175 0.9160156 0 255 0
0.004255295 0.07678175 0.9199219 0 255 0
0.004252434 0.07678175 0.9238281 0 255 0
0.004249573 0.07678175 0.9277344 0 255 0
0.004245758 0.07678175 0.9316406 0 255 0
0.004242897 0.07678175 0.9355469 0 255 0
0.004240036 0.07678175 0.9394531 0 255 0
0.004240036 0.07678175 0.9433594 0 255 0
0.004241943 0.07678175 0.9472656 0 255 0
0.004243851 0.07678175 0.9511719 0 255 0
0.004245758 0.07678175 0.9550781 0 255 0
0.004238129 0.07678175 0.9589844 0 255 0
0.004230499 0.07678175 0.9628906 0 255 0
0.004223824 0.07678175 0.9667969 0 255 0
0.004216194 0.07678175 0.9707031 0 255 0
0.004208565 0.07678175 0.9746094 0 255 0
0.004200935 0.07678175 0.9785156 0 255 0
0.004193306 0.07678175 0.9824219 0 255 0
0.004185677 0.07678175 0.9863281 0 255 0
0.004184723 0.07678175 0.9902344 0 255 0
0.00418663 0.07678175 0.9941406 0 255 0
0.002151489 0.07678175 0.9980469 0 255 0
0.0126009 0.0728755 -0.9785156 0 0 255
0.01472378 0.0728755 -0.9746094 0 0 255
0.01595402 0.0728755 -0.9707031 0 0 255
0.01718426 0.0728755 -0.9667969 0 0 255
0.01854515 0.0728755 -0.9628906 0 0 255
0.02052593 0.0728755 -0.9589844 0 0 255
0.02235985 0.0728755 -0.9550781 0 0 255
0.02290344 0.0728755 -0.9511719 0 0 255
0.02296257 0.0728755 -0.9472656 0 0 255
0.02296638 0.0728755 -0.9433594 0 0 255
0.0229702 0.0728755 -0.9394531 0 0 255
0.02297401 0.0728755 -0.9355469 0 0 255
0.02297783 0.0728755 -0.9316406 0 0 255
0.02298164 0.0728755 -0.9277344 0 0 255
0.02298546 0.0728755 -0.9238281 0 0 255
0.02298927 0.0728755 -0.9199219 0 0 255
0.02299404 0.0728755 -0.9160156 0 0 255
0.02299786 0.0728755 -0.9121094 0 0 255
0.022995 0.0728755 -0.9082031 0 0 255
0.02299595 0.0728755 -0.9042969 0 0 255
0.02299881 0.0728755 -0.9003906 0 0 255
0.02300262 0.0728755 -0.8964844 0 0 255
0.02300644 0.0728755 -0.8925781 0 0 255
0.02301025 0.0728755 -0.8886719 0 0 255
0.02301407 0.0728755 -0.8847656 0 0 255
0.02301788 0.0728755 -0.8808594 0 0 255
0.02302074 0.0728755 -0.8769531 0 0 255
0.02302456 0.0728755 -0.8730469 0 0 255
0.02302837 0.0728755 -0.8691406 0 0 255
0.02303219 0.0728755 -0.8652344 0 0 255
0.023036 0.0728755 -0.8613281 0 0 255
0.02303982 0.0728755 -0.8574219 0 0 255
0.02304268 0.0728755 -0.8535156 0 0 255
0.02304649 0.0728755 -0.8496094 0 0 255
0.02305031 0.0728755 -0.8457031 0 0 255
0.02305412 0.0728755 -0.8417969 0 0 255
0.02305794 0.0728755 -0.8378906 0 0 255
0.02305889 0.0728755 -0.8339844 0 0 255
0.02305603 0.0728755 -0.8300781 0 0 255
0.02305508 0.0728755 -0.8261719 0 0 255
0.02305889 0.0728755 -0.8222656 0 0 255
0.02306175 0.0728755 -0.8183594 0 0 255
0.02306557 0.0728755 -0.8144531 0 0 255
0.02306938 0.0728755 -0.8105469 0 0 255
0.0230732 0.0728755 -0.8066406 0 0 255
0.02307606 0.0728755 -0.8027344 0 0 255
0.02307987 0.0728755 -0.7988281 0 0 255
0.02308369 0.0728755 -0.7949219 0 0 255
0.0230875 0.0728755 -0.7910156 0 0 255
0.02309036 0.0728755 -0.7871094 0 0 255
0.02309418 0.0728755 -0.7832031 0 0 255
0.02309799 0.0728755 -0.7792969 0 0 255
0.02310181 0.0728755 -0.7753906 0 0 255
0.02310467 0.0728755 -0.7714844 0 0 255
0.02310848 0.0728755 -0.7675781 0 0 255
0.0231123 0.0728755 -0.7636719 0 0 255
0.02311611 0.0728755 -0.7597656 0 0 255
0.02311897 0.0728755 -0.7558594 0 0 255
0.02312279 0.0728755 -0.7519531 0 0 255
0.0231266 0.0728755 -0.7480469 0 0 255
0.02313042 0.0728755 -0.7441406 0 0 255
0.02313328 0.0728755 -0.7402344 0 0 255
0.02313709 0.0728755 -0.7363281 0 0 255
0.02314091 0.0728755 -0.7324219 0 0 255
0.02314472 0.0728755 -0.7285156 0 0 255
0.02314758 0.0728755 -0.7246094 0 0 255
0.0231514 0.0728755 -0.7207031 0 0 255
0.02315521 0.0728755 -0.7167969 0 0 255
0.02315903 0.0728755 -0.7128906 0 0 255
0.02316189 0.0728755 -0.7089844 0 0 255
0.0231657 0.0728755 -0.7050781 0 0 255
0.02316952 0.0728755 -0.7011719 0 0 255
0.02317333 0.0728755 -0.6972656 0 0 255
0.02317619 0.0728755 -0.6933594 0 0 255
0.02318001 0.0728755 -0.6894531 0 0 255
0.02318382 0.0728755 -0.6855469 0 0 255
0.02318192 0.0728755 -0.6816406 0 0 255
0.02317905 0.0728755 -0.6777344 0 0 255
0.0231781 0.0728755 -0.6738281 0 0 255
0.02318192 0.0728755 -0.6699219 0 0 255
0.02318573 0.0728755 -0.6660156 0 0 255
0.02318859 0.0728755 -0.6621094 0 0 255
0.02319241 0.0728755 -0.6582031 0 0 255
0.02319527 0.0728755 -0.6542969 0 0 255
0.02319908 0.0728755 -0.6503906 0 0 255
0.0232029 0.0728755 -0.6464844 0 0 255
0.02320576 0.0728755 -0.6425781 0 0 255
0.02320957 0.0728755 -0.6386719 0 0 255
0.02321243 0.0728755 -0.6347656 0 0 255
0.02321625 0.0728755 -0.6308594 0 0 255
0.02321911 0.0728755 -0.6269531 0 0 255
0.02322292 0.0728755 -0.6230469 0 0 255
0.02322674 0.0728755 -0.6191406 0 0 255
0.0232296 0.0728755 -0.6152344 0 0 255
0.02323341 0.0728755 -0.6113281 0 0 255
0.02323627 0.0728755 -0.6074219 0 0 255
0.02324009 0.0728755 -0.6035156 0 0 255
0.02324295 0.0728755 -0.5996094 0 0 255
0.02324677 0.0728755 -0.5957031 0 0 255
0.02325058 0.0728755 -0.5917969 0 0 255
0.02325344 0.0728755 -0.5878906 0 0 255
0.02325726 0.0728755 -0.5839844 0 0 255
0.02326012 0.0728755 -0.5800781 0 0 255
0.02326393 0.0728755 -0.5761719 0 0 255
0.02326775 0.0728755 -0.5722656 0 0 255
0.02327061 0.0728755 -0.5683594 0 0 255
0.02327442 0.0728755 -0.5644531 0 0 255
0.02327728 0.0728755 -0.5605469 0 0 255
0.0232811 0.0728755 -0.5566406 0 0 255
0.02328396 0.0728755 -0.5527344 0 0 255
0.02328777 0.0728755 -0.5488281 0 0 255
0.02329159 0.0728755 -0.5449219 0 0 255
0.02329445 0.0728755 -0.5410156 0 0 255
0.02329826 0.0728755 -0.5371094 0 0 255
0.02330112 0.0728755 -0.5332031 0 0 255
0.02330494 0.0728755 -0.5292969 0 0 255
0.02330875 0.0728755 -0.5253906 0 0 255
0.02331161 0.0728755 -0.5214844 0 0 255
0.02331543 0.0728755 -0.5175781 0 0 255
0.02331829 0.0728755 -0.5136719 0 0 255
0.02332211 0.0728755 -0.5097656 0 0 255
0.02332497 0.0728755 -0.5058594 0 0 255
0.02332878 0.0728755 -0.5019531 0 0 255
0.0233326 0.0728755 -0.4980469 0 0 255
0.02333546 0.0728755 -0.4941406 0 0 255
0.02333927 0.0728755 -0.4902344 0 0 255
0.02334213 0.0728755 -0.4863281 0 0 255
0.02334213 0.0728755 -0.4824219 0 0 255
0.02334595 0.0728755 -0.4785156 0 0 255
0.02334881 0.0728755 -0.4746094 0 0 255
0.02335262 0.0728755 -0.4707031 0 0 255
0.02335548 0.0728755 -0.4667969 0 0 255
0.02335835 0.0728755 -0.4628906 0 0 255
0.02336216 0.0728755 -0.4589844 0 0 255
0.02336502 0.0728755 -0.4550781 0 0 255
0.02336884 0.0728755 -0.4511719 0 0 255
0.0233717 0.0728755 -0.4472656 0 0 255
0.02337551 0.0728755 -0.4433594 0 0 255
0.02336884 0.0728755 -0.4394531 0 0 255
0.02336216 0.0728755 -0.4355469 0 0 255
0.02335548 0.0728755 -0.4316406 0 0 255
0.02334976 0.0728755 -0.4277344 0 0 255
0.02334309 0.0728755 -0.4238281 0 0 255
0.02333641 0.0728755 -0.4199219 0 0 255
0.02333069 0.0728755 -0.4160156 0 0 255
0.02332401 0.0728755 -0.4121094 0 0 255
0.02331734 0.0728755 -0.4082031 0 0 255
0.02331161 0.0728755 -0.4042969 0 0 255
0.02330494 0.0728755 -0.4003906 0 0 255
0.02329826 0.0728755 -0.3964844 0 0 255
0.02329159 0.0728755 -0.3925781 0 0 255
0.02328587 0.0728755 -0.3886719 0 0 255
0.02327919 0.0728755 -0.3847656 0 0 255
0.02327251 0.0728755 -0.3808594 0 0 255
0.02326679 0.0728755 -0.3769531 0 0 255
0.02326012 0.0728755 -0.3730469 0 0 255
0.02325344 0.0728755 -0.3691406 0 0 255
0.02324677 0.0728755 -0.3652344 0 0 255
0.02324104 0.0728755 -0.3613281 0 0 255
0.02323437 0.0728755 -0.3574219 0 0 255
0.02322769 0.0728755 -0.3535156 0 0 255
0.02322197 0.0728755 -0.3496094 0 0 255
0.02321529 0.0728755 -0.3457031 0 0 255
0.02320862 0.0728755 -0.3417969 0 0 255
0.02320194 0.0728755 -0.3378906 0 0 255
0.02319622 0.0728755 -0.3339844 0 0 255
0.02318954 0.0728755 -0.3300781 0 0 255
0.02318287 0.0728755 -0.3261719 0 0 255
0.02317715 0.0728755 -0.3222656 0 0 255
0.02317047 0.0728755 -0.3183594 0 0 255
0.0231638 0.0728755 -0.3144531 0 0 255
0.02315807 0.0728755 -0.3105469 0 0 255
0.0231514 0.0728755 -0.3066406 0 0 255
0.02314472 0.0728755 -0.3027344 0 0 255
0.02313805 0.0728755 -0.2988281 0 0 255
0.02313614 0.0728755 -0.2949219 0 0 255
0.02314281 0.0728755 -0.2910156 0 0 255
0.02315044 0.0728755 -0.2871094 0 0 255
0.02314472 0.0728755 -0.2832031 0 0 255
0.02313805 0.0728755 -0.2792969 0 0 255
0.02313232 0.0728755 -0.2753906 0 0 255
0.0231266 0.0728755 -0.2714844 0 0 255
0.02311993 0.0728755 -0.2675781 0 0 255
0.0231142 0.0728755 -0.2636719 0 0 255
0.02310848 0.0728755 -0.2597656 0 0 255
0.02310181 0.0728755 -0.2558594 0 0 255
0.02309608 0.0728755 -0.2519531 0 0 255
0.02309036 0.0728755 -0.2480469 0 0 255
0.02308369 0.0728755 -0.2441406 0 0 255
0.02307796 0.0728755 -0.2402344 0 0 255
0.02307224 0.0728755 -0.2363281 0 0 255
0.02306557 0.0728755 -0.2324219 0 0 255
0.02305984 0.0728755 -0.2285156 0 0 255
0.02305317 0.0728755 -0.2246094 0 0 255
0.02304745 0.0728755 -0.2207031 0 0 255
0.02304173 0.0728755 -0.2167969 0 0 255
0.02303505 0.0728755 -0.2128906 0 0 255
0.02302933 0.0728755 -0.2089844 0 0 255
0.02302361 0.0728755 -0.2050781 0 0 255
0.02301693 0.0728755 -0.2011719 0 0 255
0.02301121 0.0728755 -0.1972656 0 0 255
0.02300549 0.0728755 -0.1933594 0 0 255
0.02299881 0.0728755 -0.1894531 0 0 255
0.02299309 0.0728755 -0.1855469 0 0 255
0.02298737 0.0728755 -0.1816406 0 0 255
0.02298069 0.0728755 -0.1777344 0 0 255
0.02297497 0.0728755 -0.1738281 0 0 255
0.02296829 0.0728755 -0.1699219 0 0 255
0.02296257 0.0728755 -0.1660156 0 0 255
0.02295685 0.0728755 -0.1621094 0 0 255
0.02295017 0.0728755 -0.1582031 0 0 255
0.02294445 0.0728755 -0.1542969 0 0 255
0.02293873 0.0728755 -0.1503906 0 0 255
0.02293205 0.0728755 -0.1464844 0 0 255
0.02293205 0.0728755 -0.1425781 0 0 255
0.02293873 0.0728755 -0.1386719 0 0 255
0.0229454 0.0728755 -0.1347656 0 0 255
0.02294159 0.0728755 -0.1308594 0 0 255
0.02293587 0.0728755 -0.1269531 0 0 255
0.02292919 0.0728755 -0.1230469 0 0 255
0.02292347 0.0728755 -0.1191406 0 0 255
0.02291775 0.0728755 -0.1152344 0 0 255
0.02291203 0.0728755 -0.1113281 0 0 255
0.02290535 0.0728755 -0.1074219 0 0 255
0.02289963 0.0728755 -0.1035156 0 0 255
0.02289391 0.0728755 -0.09960938 0 0 255
0.02288723 0.0728755 -0.09570313 0 0 255
0.02288151 0.0728755 -0.09179688 0 0 255
0.02287579 0.0728755 -0.08789063 0 0 255
0.02287006 0.0728755 -0.08398438 0 0 255
0.02286339 0.0728755 -0.08007813 0 0 255
0.02285767 0.0728755 -0.07617188 0 0 255
0.02285194 0.0728755 -0.07226563 0 0 255
0.02284527 0.0728755 -0.06835938 0 0 255
0.02283955 0.0728755 -0.06445313 0 0 255
0.02283382 0.0728755 -0.06054688 0 0 255
0.02278042 0.0728755 -0.05664063 0 0 255
0.02259159 0.0728755 -0.05273438 0 0 255
0.02241611 0.0728755 -0.04882813 0 0 255
0.0222683 0.0728755 -0.04492188 0 0 255
0.02211952 0.0728755 -0.04101563 0 0 255
0.0219717 0.0728755 -0.03710938 0 0 255
0.02182293 0.0728755 -0.03320313 0 0 255
0.02167511 0.0728755 -0.02929688 0 0 255
0.02152729 0.0728755 -0.02539063 0 0 255
0.02137852 0.0728755 -0.02148438 0 0 255
0.0212307 0.0728755 -0.01757813 0 0 255
0.02108192 0.0728755 -0.01367188 0 0 255
0.02003574 0.0728755 -0.009765625 0 0 255
0.01817894 0.0728755 -0.005859375 0 0 255
0.01534748 0.0728755 -0.001953125 0 0 255
0.01164436 0.0728755 0.001953125 0 0 255
0.004561424 0.0728755 0.005859375 0 255 0
0.004406929 0.0728755 0.009765625 0 255 0
0.004253387 0.0728755 0.01367188 0 255 0
0.004162788 0.0728755 0.01757813 0 255 0
0.004063606 0.0728755 0.02148438 0 255 0
0.004113197 0.0728755 0.02539063 0 255 0
0.004162788 0.0728755 0.02929688 0 255 0
0.00418663 0.0728755 0.03320313 0 255 0
0.004185677 0.0728755 0.03710938 0 255 0
0.004184723 0.0728755 0.04101563 0 255 0
0.004182816 0.0728755 0.04492188 0 255 0
0.004180908 0.0728755 0.04882813 0 255 0
0.004179955 0.0728755 0.05273438 0 255 0
0.004178047 0.0728755 0.05664063 0 255 0
0.00417614 0.0728755 0.06054688 0 255 0
0.004175186 0.0728755 0.06445313 0 255 0
0.004173279 0.0728755 0.06835938 0 255 0
0.004172325 0.0728755 0.07226563 0 255 0
0.004172325 0.0728755 0.07617188 0 255 0
0.004173279 0.0728755 0.08007813 0 255 0
0.004174232 0.0728755 0.08398438 0 255 0
0.004174232 0.0728755 0.08789063 0 255 0
0.004173279 0.0728755 0.09179688 0 255 0
0.004172325 0.0728755 0.09570313 0 255 0
0.004170418 0.0728755 0.09960938 0 255 0
0.004169464 0.0728755 0.1035156 0 255 0
0.00416851 0.0728755 0.1074219 0 255 0
0.004166603 0.0728755 0.1113281 0 255 0
0.004165649 0.0728755 0.1152344 0 255 0
0.004164696 0.0728755 0.1191406 0 255 0
0.004162788 0.0728755 0.1230469 0 255 0
0.004161835 0.0728755 0.1269531 0 255 0
0.004160881 0.0728755 0.1308594 0 255 0
0.004158974 0.0728755 0.1347656 0 255 0
0.00415802 0.0728755 0.1386719 0 255 0
0.004157066 0.0728755 0.1425781 0 255 0
0.004155159 0.0728755 0.1464844 0 255 0
0.004155159 0.0728755 0.1503906 0 255 0
0.004156113 0.0728755 0.1542969 0 255 0
0.00415802 0.0728755 0.1582031 0 255 0
0.004158974 0.0728755 0.1621094 0 255 0
0.004159927 0.0728755 0.1660156 0 255 0
0.004161835 0.0728755 0.1699219 0 255 0
0.004163742 0.0728755 0.1738281 0 255 0
0.004164696 0.0728755 0.1777344 0 255 0
0.004166603 0.0728755 0.1816406 0 255 0
0.00416851 0.0728755 0.1855469 0 255 0
0.004170418 0.0728755 0.1894531 0 255 0
0.004172325 0.0728755 0.1933594 0 255 0
0.004173279 0.0728755 0.1972656 0 255 0
0.004175186 0.0728755 0.2011719 0 255 0
0.004177094 0.0728755 0.2050781 0 255 0
0.004179001 0.0728755 0.2089844 0 255 0
0.004179955 0.0728755 0.2128906 0 255 0
0.004181862 0.0728755 0.2167969 0 255 0
0.004183769 0.0728755 0.2207031 0 255 0
0.004185677 0.0728755 0.2246094 0 255 0
0.00418663 0.0728755 0.2285156 0 255 0
0.004188538 0.0728755 0.2324219 0 255 0
0.004190445 0.0728755 0.2363281 0 255 0
0.004191399 0.0728755 0.2402344 0 255 0
0.004193306 0.0728755 0.2441406 0 255 0
0.00419426 0.0728755 0.2480469 0 255 0
0.004195213 0.0728755 0.2519531 0 255 0
0.004197121 0.0728755 0.2558594 0 255 0
0.004199028 0.0728755 0.2597656 0 255 0
0.004201889 0.0728755 0.2636719 0 255 0
0.004205704 0.0728755 0.2675781 0 255 0
0.004209518 0.0728755 0.2714844 0 255 0
0.004212379 0.0728755 0.2753906 0 255 0
0.004216194 0.0728755 0.2792969 0 255 0
0.004220009 0.0728755 0.2832031 0 255 0
0.00422287 0.0728755 0.2871094 0 255 0
0.004226685 0.0728755 0.2910156 0 255 0
0.004230499 0.0728755 0.2949219 0 255 0
0.00423336 0.0728755 0.2988281 0 255 0
0.004237175 0.0728755 0.3027344 0 255 0
0.004240036 0.0728755 0.3066406 0 255 0
0.004243851 0.0728755 0.3105469 0 255 0
0.004247665 0.0728755 0.3144531 0 255 0
0.004250526 0.0728755 0.3183594 0 255 0
0.004254341 0.0728755 0.3222656 0 255 0
0.004258156 0.0728755 0.3261719 0 255 0
0.004261017 0.0728755 0.3300781 0 255 0
0.004264832 0.0728755 0.3339844 0 255 0
0.004268646 0.0728755 0.3378906 0 255 0
0.004271507 0.0728755 0.3417969 0 255 0
0.004275322 0.0728755 0.3457031 0 255 0
0.004279137 0.0728755 0.3496094 0 255 0
0.004281998 0.0728755 0.3535156 0 255 0
0.004285812 0.0728755 0.3574219 0 255 0
0.00428772 0.0728755 0.3613281 0 255 0
0.004288673 0.0728755 0.3652344 0 255 0
0.004289627 0.0728755 0.3691406 0 255 0
0.004291534 0.0728755 0.3730469 0 255 0
0.004292488 0.0728755 0.3769531 0 255 0
0.004293442 0.0728755 0.3808594 0 255 0
0.004294395 0.0728755 0.3847656 0 255 0
0.004295349 0.0728755 0.3886719 0 255 0
0.004297256 0.0728755 0.3925781 0 255 0
0.004296303 0.0728755 0.3964844 0 255 0
0.004295349 0.0728755 0.4003906 0 255 0
0.004293442 0.0728755 0.4042969 0 255 0
0.004291534 0.0728755 0.4082031 0 255 0
0.004289627 0.0728755 0.4121094 0 255 0
0.00428772 0.0728755 0.4160156 0 255 0
0.004285812 0.0728755 0.4199219 0 255 0
0.004283905 0.0728755 0.4238281 0 255 0
0.004282951 0.0728755 0.4277344 0 255 0
0.004281044 0.0728755 0.4316406 0 255 0
0.004279137 0.0728755 0.4355469 0 255 0
0.004277229 0.0728755 0.4394531 0 255 0
0.004275322 0.0728755 0.4433594 0 255 0
0.004273415 0.0728755 0.4472656 0 255 0
0.004271507 0.0728755 0.4511719 0 255 0
0.004270554 0.0728755 0.4550781 0 255 0
0.004268646 0.0728755 0.4589844 0 255 0
0.004266739 0.0728755 0.4628906 0 255 0
0.004264832 0.0728755 0.4667969 0 255 0
0.004262924 0.0728755 0.4707031 0 255 0
0.004261017 0.0728755 0.4746094 0 255 0
0.004259109 0.0728755 0.4785156 0 255 0
0.004259109 0.0728755 0.4824219 0 255 0
0.004260063 0.0728755 0.4863281 0 255 0
0.004261017 0.0728755 0.4902344 0 255 0
0.004261971 0.0728755 0.4941406 0 255 0
0.004262924 0.0728755 0.4980469 0 255 0
0.004264832 0.0728755 0.5019531 0 255 0
0.004265785 0.0728755 0.5058594 0 255 0
0.004266739 0.0728755 0.5097656 0 255 0
0.004267693 0.0728755 0.5136719 0 255 0
0.0042696 0.0728755 0.5175781 0 255 0
0.004272461 0.0728755 0.5214844 0 255 0
0.004274368 0.0728755 0.5253906 0 255 0
0.004276276 0.0728755 0.5292969 0 255 0
0.004279137 0.0728755 0.5332031 0 255 0
0.004281044 0.0728755 0.5371094 0 255 0
0.004282951 0.0728755 0.5410156 0 255 0
0.004284859 0.0728755 0.5449219 0 255 0
0.00428772 0.0728755 0.5488281 0 255 0
0.004289627 0.0728755 0.5527344 0 255 0
0.004291534 0.0728755 0.5566406 0 255 0
0.004294395 0.0728755 0.5605469 0 255 0
0.004296303 0.0728755 0.5644531 0 255 0
0.00429821 0.0728755 0.5683594 0 255 0
0.004301071 0.0728755 0.5722656 0 255 0
0.004302979 0.0728755 0.5761719 0 255 0
0.004304886 0.0728755 0.5800781 0 255 0
0.004306793 0.0728755 0.5839844 0 255 0
0.004309654 0.0728755 0.5878906 0 255 0
0.004311562 0.0728755 0.5917969 0 255 0
0.004313469 0.0728755 0.5957031 0 255 0
0.00431633 0.0728755 0.5996094 0 255 0
0.004318237 0.0728755 0.6035156 0 255 0
0.004320145 0.0728755 0.6074219 0 255 0
0.004323006 0.0728755 0.6113281 0 255 0
0.004324913 0.0728755 0.6152344 0 255 0
0.004325867 0.0728755 0.6191406 0 255 0
0.004327774 0.0728755 0.6230469 0 255 0
0.004328728 0.0728755 0.6269531 0 255 0
0.004330635 0.0728755 0.6308594 0 255 0
0.004331589 0.0728755 0.6347656 0 255 0
0.004333496 0.0728755 0.6386719 0 255 0
0.00433445 0.0728755 0.6425781 0 255 0
0.004336357 0.0728755 0.6464844 0 255 0
0.004337311 0.0728755 0.6503906 0 255 0
0.004339218 0.0728755 0.6542969 0 255 0
0.004340172 0.0728755 0.6582031 0 255 0
0.004339218 0.0728755 0.6621094 0 255 0
0.004337311 0.0728755 0.6660156 0 255 0
0.004335403 0.0728755 0.6699219 0 255 0
0.004333496 0.0728755 0.6738281 0 255 0
0.004331589 0.0728755 0.6777344 0 255 0
0.004329681 0.0728755 0.6816406 0 255 0
0.004327774 0.0728755 0.6855469 0 255 0
0.004325867 0.0728755 0.6894531 0 255 0
0.004323959 0.0728755 0.6933594 0 255 0
0.004322052 0.0728755 0.6972656 0 255 0
0.004320145 0.0728755 0.7011719 0 255 0
0.004318237 0.0728755 0.7050781 0 255 0
0.00431633 0.0728755 0.7089844 0 255 0
0.004314423 0.0728755 0.7128906 0 255 0
0.004312515 0.0728755 0.7167969 0 255 0
0.004310608 0.0728755 0.7207031 0 255 0
0.004308701 0.0728755 0.7246094 0 255 0
0.004306793 0.0728755 0.7285156 0 255 0
0.004304886 0.0728755 0.7324219 0 255 0
0.004304886 0.0728755 0.7363281 0 255 0
0.004306793 0.0728755 0.7402344 0 255 0
0.004307747 0.0728755 0.7441406 0 255 0
0.004309654 0.0728755 0.7480469 0 255 0
0.004311562 0.0728755 0.7519531 0 255 0
0.004312515 0.0728755 0.7558594 0 255 0
0.004314423 0.0728755 0.7597656 0 255 0
0.00431633 0.0728755 0.7636719 0 255 0
0.004317284 0.0728755 0.7675781 0 255 0
0.004319191 0.0728755 0.7714844 0 255 0
0.004321098 0.0728755 0.7753906 0 255 0
0.004323006 0.0728755 0.7792969 0 255 0
0.004325867 0.0728755 0.7832031 0 255 0
0.004327774 0.0728755 0.7871094 0 255 0
0.004329681 0.0728755 0.7910156 0 255 0
0.004332542 0.0728755 0.7949219 0 255 0
0.00433445 0.0728755 0.7988281 0 255 0
0.004336357 0.0728755 0.8027344 0 255 0
0.004339218 0.0728755 0.8066406 0 255 0
0.004341125 0.0728755 0.8105469 0 255 0
0.004343033 0.0728755 0.8144531 0 255 0
0.004345894 0.0728755 0.8183594 0 255 0
0.004347801 0.0728755 0.8222656 0 255 0
0.004349709 0.0728755 0.8261719 0 255 0
0.00435257 0.0728755 0.8300781 0 255 0
0.004354477 0.0728755 0.8339844 0 255 0
0.004356384 0.0728755 0.8378906 0 255 0
0.004358292 0.0728755 0.8417969 0 255 0
0.004360199 0.0728755 0.8457031 0 255 0
0.004361153 0.0728755 0.8496094 0 255 0
0.00436306 0.0728755 0.8535156 0 255 0
0.004364967 0.0728755 0.8574219 0 255 0
0.004365921 0.0728755 0.8613281 0 255 0
0.004367828 0.0728755 0.8652344 0 255 0
0.004368782 0.0728755 0.8691406 0 255 0
0.004370689 0.0728755 0.8730469 0 255 0
0.004371643 0.0728755 0.8769531 0 255 0
0.004371643 0.0728755 0.8808594 0 255 0
0.004368782 0.0728755 0.8847656 0 255 0
0.004365921 0.0728755 0.8886719 0 255 0
0.004362106 0.0728755 0.8925781 0 255 0
0.004359245 0.0728755 0.8964844 0 255 0
0.004356384 0.0728755 0.9003906 0 255 0
0.004353523 0.0728755 0.9042969 0 255 0
0.004349709 0.0728755 0.9082031 0 255 0
0.004346848 0.0728755 0.9121094 0 255 0
0.004343987 0.0728755 0.9160156 0 255 0
0.004341125 0.0728755 0.9199219 0 255 0
0.004339218 0.0728755 0.9238281 0 255 0
0.004340172 0.0728755 0.9277344 0 255 0
0.004342079 0.0728755 0.9316406 0 255 0
0.004343987 0.0728755 0.9355469 0 255 0
0.004345894 0.0728755 0.9394531 0 255 0
0.004347801 0.0728755 0.9433594 0 255 0
0.004349709 0.0728755 0.9472656 0 255 0
0.004351616 0.0728755 0.9511719 0 255 0
0.004346848 0.0728755 0.9550781 0 255 0
0.004339218 0.0728755 0.9589844 0 255 0
0.004331589 0.0728755 0.9628906 0 255 0
0.004323959 0.0728755 0.9667969 0 255 0
0.004317284 0.0728755 0.9707031 0 255 0
0.004309654 0.0728755 0.9746094 0 255 0
0.004308701 0.0728755 0.9785156 0 255 0
0.004310608 0.0728755 0.9824219 0 255 0
0.004312515 0.0728755 0.9863281 0 255 0
0.004314423 0.0728755 0.9902344 0 255 0
0.002996445 0.0728755 0.9941406 0 255 0
0.01069546 0.06896925 -0.9824219 0 0 255
0.01629543 0.06896925 -0.9785156 0 0 255
0.01951313 0.06896925 -0.9746094 0 0 255
0.02074337 0.06896925 -0.9707031 0 0 255
0.02237988 0.06896925 -0.9667969 0 0 255
0.02335453 0.06896925 -0.9628906 0 0 255
0.02384758 0.06896925 -0.9589844 0 0 255
0.0244112 0.06896925 -0.9550781 0 0 255
0.02501965 0.06896925 -0.9511719 0 0 255
0.02507496 0.06896925 -0.9472656 0 0 255
0.02507877 0.06896925 -0.9433594 0 0 255
0.02508259 0.06896925 -0.9394531 0 0 255
0.0250864 0.06896925 -0.9355469 0 0 255
0.02509022 0.06896925 -0.9316406 0 0 255
0.02509403 0.06896925 -0.9277344 0 0 255
0.02509785 0.06896925 -0.9238281 0 0 255
0.02509403 0.06896925 -0.9199219 0 0 255
0.02509117 0.06896925 -0.9160156 0 0 255
0.02508736 0.06896925 -0.9121094 0 0 255
0.0250845 0.06896925 -0.9082031 0 0 255
0.0250845 0.06896925 -0.9042969 0 0 255
0.02508831 0.06896925 -0.9003906 0 0 255
0.02509212 0.06896925 -0.8964844 0 0 255
0.02509594 0.06896925 -0.8925781 0 0 255
0.02509975 0.06896925 -0.8886719 0 0 255
0.02510262 0.06896925 -0.8847656 0 0 255
0.02510643 0.06896925 -0.8808594 0 0 255
0.02511024 0.06896925 -0.8769531 0 0 255
0.02511406 0.06896925 -0.8730469 0 0 255
0.02511787 0.06896925 -0.8691406 0 0 255
0.02512169 0.06896925 -0.8652344 0 0 255
0.02512455 0.06896925 -0.8613281 0 0 255
0.02512836 0.06896925 -0.8574219 0 0 255
0.0251255 0.06896925 -0.8535156 0 0 255
0.02512264 0.06896925 -0.8496094 0 0 255
0.02511883 0.06896925 -0.8457031 0 0 255
0.02511597 0.06896925 -0.8417969 0 0 255
0.02511311 0.06896925 -0.8378906 0 0 255
0.02510929 0.06896925 -0.8339844 0 0 255
0.02510643 0.06896925 -0.8300781 0 0 255
0.02510452 0.06896925 -0.8261719 0 0 255
0.02510834 0.06896925 -0.8222656 0 0 255
0.02511215 0.06896925 -0.8183594 0 0 255
0.02511597 0.06896925 -0.8144531 0 0 255
0.02511883 0.06896925 -0.8105469 0 0 255
0.02512264 0.06896925 -0.8066406 0 0 255
0.02512646 0.06896925 -0.8027344 0 0 255
0.02513027 0.06896925 -0.7988281 0 0 255
0.02513313 0.06896925 -0.7949219 0 0 255
0.02513695 0.06896925 -0.7910156 0 0 255
0.02514076 0.06896925 -0.7871094 0 0 255
0.02514458 0.06896925 -0.7832031 0 0 255
0.02514839 0.06896925 -0.7792969 0 0 255
0.02515125 0.06896925 -0.7753906 0 0 255
0.02515507 0.06896925 -0.7714844 0 0 255
0.02515888 0.06896925 -0.7675781 0 0 255
0.0251627 0.06896925 -0.7636719 0 0 255
0.02516556 0.06896925 -0.7597656 0 0 255
0.02516937 0.06896925 -0.7558594 0 0 255
0.02517319 0.06896925 -0.7519531 0 0 255
0.025177 0.06896925 -0.7480469 0 0 255
0.02517986 0.06896925 -0.7441406 0 0 255
0.02518368 0.06896925 -0.7402344 0 0 255
0.02518749 0.06896925 -0.7363281 0 0 255
0.02519131 0.06896925 -0.7324219 0 0 255
0.02519417 0.06896925 -0.7285156 0 0 255
0.02519226 0.06896925 -0.7246094 0 0 255
0.0251894 0.06896925 -0.7207031 0 0 255
0.02518654 0.06896925 -0.7167969 0 0 255
0.02518368 0.06896925 -0.7128906 0 0 255
0.02517986 0.06896925 -0.7089844 0 0 255
0.025177 0.06896925 -0.7050781 0 0 255
0.02517414 0.06896925 -0.7011719 0 0 255
0.02517128 0.06896925 -0.6972656 0 0 255
0.02516747 0.06896925 -0.6933594 0 0 255
0.0251646 0.06896925 -0.6894531 0 0 255
0.02516174 0.06896925 -0.6855469 0 0 255
0.02515888 0.06896925 -0.6816406 0 0 255
0.02515507 0.06896925 -0.6777344 0 0 255
0.02515507 0.06896925 -0.6738281 0 0 255
0.02515888 0.06896925 -0.6699219 0 0 255
0.02516174 0.06896925 -0.6660156 0 0 255
0.02516556 0.06896925 -0.6621094 0 0 255
0.02516937 0.06896925 -0.6582031 0 0 255
0.02517223 0.06896925 -0.6542969 0 0 255
0.02517605 0.06896925 -0.6503906 0 0 255
0.02517891 0.06896925 -0.6464844 0 0 255
0.02518272 0.06896925 -0.6425781 0 0 255
0.02518559 0.06896925 -0.6386719 0 0 255
0.0251894 0.06896925 -0.6347656 0 0 255
0.02519321 0.06896925 -0.6308594 0 0 255
0.02519608 0.06896925 -0.6269531 0 0 255
0.02519989 0.06896925 -0.6230469 0 0 255
0.02520275 0.06896925 -0.6191406 0 0 255
0.02520657 0.06896925 -0.6152344 0 0 255
0.02520943 0.06896925 -0.6113281 0 0 255
0.02521324 0.06896925 -0.6074219 0 0 255
0.02521706 0.06896925 -0.6035156 0 0 255
0.02521992 0.06896925 -0.5996094 0 0 255
0.02522373 0.06896925 -0.5957031 0 0 255
0.02522659 0.06896925 -0.5917969 0 0 255
0.02523041 0.06896925 -0.5878906 0 0 255
0.02523422 0.06896925 -0.5839844 0 0 255
0.02523708 0.06896925 -0.5800781 0 0 255
0.0252409 0.06896925 -0.5761719 0 0 255
0.02524376 0.06896925 -0.5722656 0 0 255
0.02524757 0.06896925 -0.5683594 0 0 255
0.02525043 0.06896925 -0.5644531 0 0 255
0.02525425 0.06896925 -0.5605469 0 0 255
0.02525806 0.06896925 -0.5566406 0 0 255
0.02526093 0.06896925 -0.5527344 0 0 255
0.02526474 0.06896925 -0.5488281 0 0 255
0.0252676 0.06896925 -0.5449219 0 0 255
0.02527142 0.06896925 -0.5410156 0 0 255
0.02527046 0.06896925 -0.5371094 0 0 255
0.0252676 0.06896925 -0.5332031 0 0 255
0.02526379 0.06896925 -0.5292969 0 0 255
0.02526093 0.06896925 -0.5253906 0 0 255
0.02525806 0.06896925 -0.5214844 0 0 255
0.0252552 0.06896925 -0.5175781 0 0 255
0.02525234 0.06896925 -0.5136719 0 0 255
0.02524948 0.06896925 -0.5097656 0 0 255
0.02524662 0.06896925 -0.5058594 0 0 255
0.02524376 0.06896925 -0.5019531 0 0 255
0.02523994 0.06896925 -0.4980469 0 0 255
0.02523708 0.06896925 -0.4941406 0 0 255
0.02523422 0.06896925 -0.4902344 0 0 255
0.02523136 0.06896925 -0.4863281 0 0 255
0.02523041 0.06896925 -0.4824219 0 0 255
0.02523327 0.06896925 -0.4785156 0 0 255
0.02523708 0.06896925 -0.4746094 0 0 255
0.02523994 0.06896925 -0.4707031 0 0 255
0.02524376 0.06896925 -0.4667969 0 0 255
0.02524662 0.06896925 -0.4628906 0 0 255
0.02525043 0.06896925 -0.4589844 0 0 255
0.0252533 0.06896925 -0.4550781 0 0 255
0.02525616 0.06896925 -0.4511719 0 0 255
0.02525997 0.06896925 -0.4472656 0 0 255
0.02526283 0.06896925 -0.4433594 0 0 255
0.02526665 0.06896925 -0.4394531 0 0 255
0.02526951 0.06896925 -0.4355469 0 0 255
0.02527237 0.06896925 -0.4316406 0 0 255
0.02527618 0.06896925 -0.4277344 0 0 255
0.02527905 0.06896925 -0.4238281 0 0 255
0.02528286 0.06896925 -0.4199219 0 0 255
0.02528572 0.06896925 -0.4160156 0 0 255
0.02528954 0.06896925 -0.4121094 0 0 255
0.0252924 0.06896925 -0.4082031 0 0 255
0.02529526 0.06896925 -0.4042969 0 0 255
0.02529907 0.06896925 -0.4003906 0 0 255
0.02530193 0.06896925 -0.3964844 0 0 255
0.02530575 0.06896925 -0.3925781 0 0 255
0.02530861 0.06896925 -0.3886719 0 0 255
0.02531147 0.06896925 -0.3847656 0 0 255
0.02531528 0.06896925 -0.3808594 0 0 255
0.02531815 0.06896925 -0.3769531 0 0 255
0.02532196 0.06896925 -0.3730469 0 0 255
0.02532482 0.06896925 -0.3691406 0 0 255
0.02532864 0.06896925 -0.3652344 0 0 255
0.0253315 0.06896925 -0.3613281 0 0 255
0.02533436 0.06896925 -0.3574219 0 0 255
0.02533817 0.06896925 -0.3535156 0 0 255
0.02534103 0.06896925 -0.3496094 0 0 255
0.02534485 0.06896925 -0.3457031 0 0 255
0.02534771 0.06896925 -0.3417969 0 0 255
0.0253458 0.06896925 -0.3378906 0 0 255
0.02534294 0.06896925 -0.3339844 0 0 255
0.02534008 0.06896925 -0.3300781 0 0 255
0.02533722 0.06896925 -0.3261719 0 0 255
0.02533436 0.06896925 -0.3222656 0 0 255
0.0253315 0.06896925 -0.3183594 0 0 255
0.02532864 0.06896925 -0.3144531 0 0 255
0.02532578 0.06896925 -0.3105469 0 0 255
0.02532291 0.06896925 -0.3066406 0 0 255
0.02532005 0.06896925 -0.3027344 0 0 255
0.02531719 0.06896925 -0.2988281 0 0 255
0.02531624 0.06896925 -0.2949219 0 0 255
0.0253191 0.06896925 -0.2910156 0 0 255
0.02532291 0.06896925 -0.2871094 0 0 255
0.02532578 0.06896925 -0.2832031 0 0 255
0.02532959 0.06896925 -0.2792969 0 0 255
0.02533245 0.06896925 -0.2753906 0 0 255
0.02533531 0.06896925 -0.2714844 0 0 255
0.02533913 0.06896925 -0.2675781 0 0 255
0.02534199 0.06896925 -0.2636719 0 0 255
0.02534485 0.06896925 -0.2597656 0 0 255
0.02534866 0.06896925 -0.2558594 0 0 255
0.02535152 0.06896925 -0.2519531 0 0 255
0.02535439 0.06896925 -0.2480469 0 0 255
0.0253582 0.06896925 -0.2441406 0 0 255
0.02536106 0.06896925 -0.2402344 0 0 255
0.02536488 0.06896925 -0.2363281 0 0 255
0.02536774 0.06896925 -0.2324219 0 0 255
0.0253706 0.06896925 -0.2285156 0 0 255
0.02537441 0.06896925 -0.2246094 0 0 255
0.02537727 0.06896925 -0.2207031 0 0 255
0.02538013 0.06896925 -0.2167969 0 0 255
0.02538395 0.06896925 -0.2128906 0 0 255
0.02538681 0.06896925 -0.2089844 0 0 255
0.02538967 0.06896925 -0.2050781 0 0 255
0.02539349 0.06896925 -0.2011719 0 0 255
0.02539635 0.06896925 -0.1972656 0 0 255
0.02539921 0.06896925 -0.1933594 0 0 255
0.02540302 0.06896925 -0.1894531 0 0 255
0.02540588 0.06896925 -0.1855469 0 0 255
0.0254097 0.06896925 -0.1816406 0 0 255
0.02541256 0.06896925 -0.1777344 0 0 255
0.02541542 0.06896925 -0.1738281 0 0 255
0.02541256 0.06896925 -0.1699219 0 0 255
0.0254097 0.06896925 -0.1660156 0 0 255
0.02540684 0.06896925 -0.1621094 0 0 255
0.02540398 0.06896925 -0.1582031 0 0 255
0.02540112 0.06896925 -0.1542969 0 0 255
0.02539825 0.06896925 -0.1503906 0 0 255
0.02539539 0.06896925 -0.1464844 0 0 255
0.02539539 0.06896925 -0.1425781 0 0 255
0.02539921 0.06896925 -0.1386719 0 0 255
0.02540207 0.06896925 -0.1347656 0 0 255
0.02540493 0.06896925 -0.1308594 0 0 255
0.02540874 0.06896925 -0.1269531 0 0 255
0.02541161 0.06896925 -0.1230469 0 0 255
0.02541447 0.06896925 -0.1191406 0 0 255
0.02541828 0.06896925 -0.1152344 0 0 255
0.02542114 0.06896925 -0.1113281 0 0 255
0.025424 0.06896925 -0.1074219 0 0 255
0.02542782 0.06896925 -0.1035156 0 0 255
0.02543068 0.06896925 -0.09960938 0 0 255
0.02543354 0.06896925 -0.09570313 0 0 255
0.02543736 0.06896925 -0.09179688 0 0 255
0.02544022 0.06896925 -0.08789063 0 0 255
0.02544308 0.06896925 -0.08398438 0 0 255
0.02544594 0.06896925 -0.08007813 0 0 255
0.02544975 0.06896925 -0.07617188 0 0 255
0.02545261 0.06896925 -0.07226563 0 0 255
0.02544975 0.06896925 -0.06835938 0 0 255
0.02544689 0.06896925 -0.06445313 0 0 255
0.02544403 0.06896925 -0.06054688 0 0 255
0.02541065 0.06896925 -0.05664063 0 0 255
0.02531338 0.06896925 -0.05273438 0 0 255
0.02521515 0.06896925 -0.04882813 0 0 255
0.02511787 0.06896925 -0.04492188 0 0 255
0.02501965 0.06896925 -0.04101563 0 0 255
0.02492142 0.06896925 -0.03710938 0 0 255
0.02482414 0.06896925 -0.03320313 0 0 255
0.02472591 0.06896925 -0.02929688 0 0 255
0.02462864 0.06896925 -0.02539063 0 0 255
0.02453041 0.06896925 -0.02148438 0 0 255
0.02443886 0.06896925 -0.01757813 0 0 255
0.02430439 0.06896925 -0.01367188 0 0 255
0.02310658 0.06896925 -0.009765625 0 0 255
0.02181339 0.06896925 -0.005859375 0 0 255
0.01989174 0.06896925 -0.001953125 0 0 255
0.01691723 0.06896925 0.001953125 0 0 255
0.01234818 0.06896925 0.005859375 0 0 255
0.004543304 0.06896925 0.009765625 0 255 0
0.004388809 0.06896925 0.01367188 0 255 0
0.004297256 0.06896925 0.01757813 0 255 0
0.00414753 0.06896925 0.02148438 0 255 0
0.004197121 0.06896925 0.02539063 0 255 0
0.004246712 0.06896925 0.02929688 0 255 0
0.004253387 0.06896925 0.03320313 0 255 0
0.004252434 0.06896925 0.03710938 0 255 0
0.00425148 0.06896925 0.04101563 0 255 0
0.004249573 0.06896925 0.04492188 0 255 0
0.004247665 0.06896925 0.04882813 0 255 0
0.004246712 0.06896925 0.05273438 0 255 0
0.004244804 0.06896925 0.05664063 0 255 0
0.004242897 0.06896925 0.06054688 0 255 0
0.004241943 0.06896925 0.06445313 0 255 0
0.004240036 0.06896925 0.06835938 0 255 0
0.004241943 0.06896925 0.07226563 0 255 0
0.004242897 0.06896925 0.07617188 0 255 0
0.004243851 0.06896925 0.08007813 0 255 0
0.004245758 0.06896925 0.08398438 0 255 0
0.004245758 0.06896925 0.08789063 0 255 0
0.004243851 0.06896925 0.09179688 0 255 0
0.004242897 0.06896925 0.09570313 0 255 0
0.004241943 0.06896925 0.09960938 0 255 0
0.004240036 0.06896925 0.1035156 0 255 0
0.004239082 0.06896925 0.1074219 0 255 0
0.004238129 0.06896925 0.1113281 0 255 0
0.004236221 0.06896925 0.1152344 0 255 0
0.004235268 0.06896925 0.1191406 0 255 0
0.004234314 0.06896925 0.1230469 0 255 0
0.004232407 0.06896925 0.1269531 0 255 0
0.004231453 0.06896925 0.1308594 0 255 0
0.004230499 0.06896925 0.1347656 0 255 0
0.004228592 0.06896925 0.1386719 0 255 0
0.004230499 0.06896925 0.1425781 0 255 0
0.004231453 0.06896925 0.1464844 0 255 0
0.004232407 0.06896925 0.1503906 0 255 0
0.004234314 0.06896925 0.1542969 0 255 0
0.004235268 0.06896925 0.1582031 0 255 0
0.004237175 0.06896925 0.1621094 0 255 0
0.004238129 0.06896925 0.1660156 0 255 0
0.004239082 0.06896925 0.1699219 0 255 0
0.00424099 0.06896925 0.1738281 0 255 0
0.004242897 0.06896925 0.1777344 0 255 0
0.004244804 0.06896925 0.1816406 0 255 0
0.004245758 0.06896925 0.1855469 0 255 0
0.004247665 0.06896925 0.1894531 0 255 0
0.004249573 0.06896925 0.1933594 0 255 0
0.00425148 0.06896925 0.1972656 0 255 0
0.004252434 0.06896925 0.2011719 0 255 0
0.004254341 0.06896925 0.2050781 0 255 0
0.004256248 0.06896925 0.2089844 0 255 0
0.004258156 0.06896925 0.2128906 0 255 0
0.004259109 0.06896925 0.2167969 0 255 0
0.004261017 0.06896925 0.2207031 0 255 0
0.004262924 0.06896925 0.2246094 0 255 0
0.004263878 0.06896925 0.2285156 0 255 0
0.004265785 0.06896925 0.2324219 0 255 0
0.004266739 0.06896925 0.2363281 0 255 0
0.004267693 0.06896925 0.2402344 0 255 0
0.0042696 0.06896925 0.2441406 0 255 0
0.004270554 0.06896925 0.2480469 0 255 0
0.004272461 0.06896925 0.2519531 0 255 0
0.004273415 0.06896925 0.2558594 0 255 0
0.004275322 0.06896925 0.2597656 0 255 0
0.004279137 0.06896925 0.2636719 0 255 0
0.004281998 0.06896925 0.2675781 0 255 0
0.004285812 0.06896925 0.2714844 0 255 0
0.004289627 0.06896925 0.2753906 0 255 0
0.004292488 0.06896925 0.2792969 0 255 0
0.004296303 0.06896925 0.2832031 0 255 0
0.004300117 0.06896925 0.2871094 0 255 0
0.004302979 0.06896925 0.2910156 0 255 0
0.004306793 0.06896925 0.2949219 0 255 0
0.004310608 0.06896925 0.2988281 0 255 0
0.004313469 0.06896925 0.3027344 0 255 0
0.004317284 0.06896925 0.3066406 0 255 0
0.004321098 0.06896925 0.3105469 0 255 0
0.004323959 0.06896925 0.3144531 0 255 0
0.004327774 0.06896925 0.3183594 0 255 0
0.004331589 0.06896925 0.3222656 0 255 0
0.00433445 0.06896925 0.3261719 0 255 0
0.004338264 0.06896925 0.3300781 0 255 0
0.004342079 0.06896925 0.3339844 0 255 0
0.00434494 0.06896925 0.3378906 0 255 0
0.004347801 0.06896925 0.3417969 0 255 0
0.004348755 0.06896925 0.3457031 0 255 0
0.004350662 0.06896925 0.3496094 0 255 0
0.004351616 0.06896925 0.3535156 0 255 0
0.00435257 0.06896925 0.3574219 0 255 0
0.004353523 0.06896925 0.3613281 0 255 0
0.004354477 0.06896925 0.3652344 0 255 0
0.004355431 0.06896925 0.3691406 0 255 0
0.004357338 0.06896925 0.3730469 0 255 0
0.004358292 0.06896925 0.3769531 0 255 0
0.004359245 0.06896925 0.3808594 0 255 0
0.004360199 0.06896925 0.3847656 0 255 0
0.004361153 0.06896925 0.3886719 0 255 0
0.00436306 0.06896925 0.3925781 0 255 0
0.004362106 0.06896925 0.3964844 0 255 0
0.004360199 0.06896925 0.4003906 0 255 0
0.004358292 0.06896925 0.4042969 0 255 0
0.004356384 0.06896925 0.4082031 0 255 0
0.004354477 0.06896925 0.4121094 0 255 0
0.004353523 0.06896925 0.4160156 0 255 0
0.004351616 0.06896925 0.4199219 0 255 0
0.004349709 0.06896925 0.4238281 0 255 0
0.004347801 0.06896925 0.4277344 0 255 0
0.004345894 0.06896925 0.4316406 0 255 0
0.004343987 0.06896925 0.4355469 0 255 0
0.004342079 0.06896925 0.4394531 0 255 0
0.004341125 0.06896925 0.4433594 0 255 0
0.004339218 0.06896925 0.4472656 0 255 0
0.004337311 0.06896925 0.4511719 0 255 0
0.004335403 0.06896925 0.4550781 0 255 0
0.004333496 0.06896925 0.4589844 0 255 0
0.004331589 0.06896925 0.4628906 0 255 0
0.004332542 0.06896925 0.4667969 0 255 0
0.00433445 0.06896925 0.4707031 0 255 0
0.004335403 0.06896925 0.4746094 0 255 0
0.004336357 0.06896925 0.4785156 0 255 0
0.004337311 0.06896925 0.4824219 0 255 0
0.004338264 0.06896925 0.4863281 0 255 0
0.004339218 0.06896925 0.4902344 0 255 0
0.004341125 0.06896925 0.4941406 0 255 0
0.004342079 0.06896925 0.4980469 0 255 0
0.004343033 0.06896925 0.5019531 0 255 0
0.004343987 0.06896925 0.5058594 0 255 0
0.00434494 0.06896925 0.5097656 0 255 0
0.004346848 0.06896925 0.5136719 0 255 0
0.004348755 0.06896925 0.5175781 0 255 0
0.004351616 0.06896925 0.5214844 0 255 0
0.004353523 0.06896925 0.5253906 0 255 0
0.004355431 0.06896925 0.5292969 0 255 0
0.004358292 0.06896925 0.5332031 0 255 0
0.004360199 0.06896925 0.5371094 0 255 0
0.004362106 0.06896925 0.5410156 0 255 0
0.004364014 0.06896925 0.5449219 0 255 0
0.004366875 0.06896925 0.5488281 0 255 0
0.004368782 0.06896925 0.5527344 0 255 0
0.004370689 0.06896925 0.5566406 0 255 0
0.00437355 0.06896925 0.5605469 0 255 0
0.004375458 0.06896925 0.5644531 0 255 0
0.004377365 0.06896925 0.5683594 0 255 0
0.004379272 0.06896925 0.5722656 0 255 0
0.004382133 0.06896925 0.5761719 0 255 0
0.004384041 0.06896925 0.5800781 0 255 0
0.004385948 0.06896925 0.5839844 0 255 0
0.004388809 0.06896925 0.5878906 0 255 0
0.004390717 0.06896925 0.5917969 0 255 0
0.00439167 0.06896925 0.5957031 0 255 0
0.004393578 0.06896925 0.5996094 0 255 0
0.004394531 0.06896925 0.6035156 0 255 0
0.004396439 0.06896925 0.6074219 0 255 0
0.004397392 0.06896925 0.6113281 0 255 0
0.0043993 0.06896925 0.6152344 0 255 0
0.004400253 0.06896925 0.6191406 0 255 0
0.004402161 0.06896925 0.6230469 0 255 0
0.004403114 0.06896925 0.6269531 0 255 0
0.004405022 0.06896925 0.6308594 0 255 0
0.004405975 0.06896925 0.6347656 0 255 0
0.004407883 0.06896925 0.6386719 0 255 0
0.004408836 0.06896925 0.6425781 0 255 0
0.004410744 0.06896925 0.6464844 0 255 0
0.004411697 0.06896925 0.6503906 0 255 0
0.004413605 0.06896925 0.6542969 0 255 0
0.004414558 0.06896925 0.6582031 0 255 0
0.004412651 0.06896925 0.6621094 0 255 0
0.004410744 0.06896925 0.6660156 0 255 0
0.004408836 0.06896925 0.6699219 0 255 0
0.004406929 0.06896925 0.6738281 0 255 0
0.004405022 0.06896925 0.6777344 0 255 0
0.004403114 0.06896925 0.6816406 0 255 0
0.004401207 0.06896925 0.6855469 0 255 0
0.0043993 0.06896925 0.6894531 0 255 0
0.004397392 0.06896925 0.6933594 0 255 0
0.004395485 0.06896925 0.6972656 0 255 0
0.004393578 0.06896925 0.7011719 0 255 0
0.00439167 0.06896925 0.7050781 0 255 0
0.004389763 0.06896925 0.7089844 0 255 0
0.004387856 0.06896925 0.7128906 0 255 0
0.004388809 0.06896925 0.7167969 0 255 0
0.004390717 0.06896925 0.7207031 0 255 0
0.004392624 0.06896925 0.7246094 0 255 0
0.004393578 0.06896925 0.7285156 0 255 0
0.004395485 0.06896925 0.7324219 0 255 0
0.004397392 0.06896925 0.7363281 0 255 0
0.004398346 0.06896925 0.7402344 0 255 0
0.004400253 0.06896925 0.7441406 0 255 0
0.004402161 0.06896925 0.7480469 0 255 0
0.004403114 0.06896925 0.7519531 0 255 0
0.004405022 0.06896925 0.7558594 0 255 0
0.004406929 0.06896925 0.7597656 0 255 0
0.004407883 0.06896925 0.7636719 0 255 0
0.00440979 0.06896925 0.7675781 0 255 0
0.004411697 0.06896925 0.7714844 0 255 0
0.004413605 0.06896925 0.7753906 0 255 0
0.004415512 0.06896925 0.7792969 0 255 0
0.004418373 0.06896925 0.7832031 0 255 0
0.00442028 0.06896925 0.7871094 0 255 0
0.004422188 0.06896925 0.7910156 0 255 0
0.004425049 0.06896925 0.7949219 0 255 0
0.004426956 0.06896925 0.7988281 0 255 0
0.004428864 0.06896925 0.8027344 0 255 0
0.004430771 0.06896925 0.8066406 0 255 0
0.004433632 0.06896925 0.8105469 0 255 0
0.004435539 0.06896925 0.8144531 0 255 0
0.004437447 0.06896925 0.8183594 0 255 0
0.004439354 0.06896925 0.8222656 0 255 0
0.004441261 0.06896925 0.8261719 0 255 0
0.004442215 0.06896925 0.8300781 0 255 0
0.004444122 0.06896925 0.8339844 0 255 0
0.004445076 0.06896925 0.8378906 0 255 0
0.004446983 0.06896925 0.8417969 0 255 0
0.004447937 0.06896925 0.8457031 0 255 0
0.004449844 0.06896925 0.8496094 0 255 0
0.004451752 0.06896925 0.8535156 0 255 0
0.004452705 0.06896925 0.8574219 0 255 0
0.004454613 0.06896925 0.8613281 0 255 0
0.004455566 0.06896925 0.8652344 0 255 0
0.004457474 0.06896925 0.8691406 0 255 0
0.004459381 0.06896925 0.8730469 0 255 0
0.004460335 0.06896925 0.8769531 0 255 0
0.004457474 0.06896925 0.8808594 0 255 0
0.004454613 0.06896925 0.8847656 0 255 0
0.004450798 0.06896925 0.8886719 0 255 0
0.004447937 0.06896925 0.8925781 0 255 0
0.004445076 0.06896925 0.8964844 0 255 0
0.004442215 0.06896925 0.9003906 0 255 0
0.0044384 0.06896925 0.9042969 0 255 0
0.004439354 0.06896925 0.9082031 0 255 0
0.004441261 0.06896925 0.9121094 0 255 0
0.004443169 0.06896925 0.9160156 0 255 0
0.004445076 0.06896925 0.9199219 0 255 0
0.004446983 0.06896925 0.9238281 0 255 0
0.004447937 0.06896925 0.9277344 0 255 0
0.004449844 0.06896925 0.9316406 0 255 0
0.004451752 0.06896925 0.9355469 0 255 0
0.004453659 0.06896925 0.9394531 0 255 0
0.004455566 0.06896925 0.9433594 0 255 0
0.004457474 0.06896925 0.9472656 0 255 0
0.004455566 0.06896925 0.9511719 0 255 0
0.004447937 0.06896925 0.9550781 0 255 0
