0.0005369186 0.01330614 0.0189333 0 255 0
0.0005369186 0.0135994 0.02116013 0 255 0
0.0005369186 0.01389265 0.02338791 0 255 0
0.0005369186 0.01418591 0.02561474 0 255 0
0.0005369186 0.01419258 0.02784252 0 255 0
0.0005369186 0.01410818 0.03006983 0 255 0
0.0005369186 0.01402426 0.03229761 0 255 0
0.0005369186 0.01393986 0.03452396 0 255 0
0.0005369186 0.01385546 0.03675175 0 255 0
0.0005369186 0.01377153 0.03897953 0 255 0
0.0005369186 0.01368713 0.04120636 0 255 0
0.0005369186 0.01360273 0.04343319 0 255 0
0.0005369186 0.01351833 0.04566097 0 255 0
0.0005369186 0.01343441 0.04788828 0 255 0
0.0005369186 0.01335001 0.05011606 0 255 0
0.0005369186 0.01312447 0.05234289 0 255 0
0.0005369186 0.01285124 0.0545702 0 255 0
0.0005369186 0.01257753 0.05679798 0 255 0
0.0005369186 0.01230431 0.05902481 0 255 0
0.0005369186 0.0120306 0.06125164 0 255 0
0.0005369186 0.01175737 0.06347942 0 255 0
0.0005369186 0.01148367 0.06570673 0 255 0
0.0005369186 0.01121044 0.06793451 0 255 0
0.0005369186 0.01093674 0.07016134 0 255 0
0.0005369186 0.01066351 0.07238865 0 255 0
0.0005369186 0.0103898 0.07461643 0 255 0
0.0005369186 0.01011658 0.07684326 0 255 0
0.0005369186 0.009842873 0.07907009 0 255 0
0.0005369186 0.009569168 0.08129787 0 255 0
0.0005369186 0.00929594 0.08352518 0 255 0
0.0005369186 0.009022236 0.08575296 0 255 0
0.0005369186 0.008749008 0.08797979 0 255 0
0.0005369186 0.008475304 0.0902071 0 255 0
0.0005369186 0.008202076 0.09243488 0 255 0
0.0005369186 0.007928371 0.09466171 0 255 0
0.0005369186 0.007655144 0.09688854 0 255 0
0.0005369186 0.007381439 0.09911633 0 255 0
0.0005369186 0.007108212 0.1013436 0 255 0
0.0005369186 0.006834507 0.1035714 0 255 0
0.0005369186 0.006561279 0.1057982 0 255 0
0.0005369186 0.006287575 0.1080256 0 255 0
0.0005369186 0.006014347 0.1102533 0 255 0
0.0005369186 0.005740643 0.1124802 0 255 0
0.0005369186 0.005467415 0.114707 0 255 0
0.0005369186 0.00519371 0.1169348 0 255 0
0.0005369186 0.004920483 0.1191621 0 255 0
0.0005369186 0.004646778 0.1213899 0 255 0
0.0005369186 0.004373074 0.1236167 0 255 0
0.0005369186 0.004099846 0.125844 0 255 0
0.0005369186 0.003826141 0.1280718 0 255 0
0.0005369186 0.003552914 0.1302986 0 255 0
0.0005369186 0.003279209 0.1325254 0 255 0
0.0005369186 0.003005981 0.1347532 0 255 0
0.0005369186 0.002732277 0.1369805 0 255 0
0.0005369186 0.002459049 0.1392083 0 255 0
0.0005369186 0.002185345 0.1414351 0 255 0
0.0005369186 0.001912117 0.1436625 0 255 0
0.0005369186 0.001638412 0.1458902 0 255 0
0.0005369186 0.001365185 0.1481171 0 255 0
0.0005369186 0.00109148 0.1503439 0 255 0
0.0005369186 0.0008182526 0.1525717 0 255 0
0.0005369186 0.000544548 0.154799 0 255 0
0.0005369186 0.0002708435 0.1570268 0 255 0
0.0005369186 -2.384186E-06 0.1592536 0 255 0
0.0005369186 -0.0002756119 0.1614809 0 255 0
0.0005369186 -0.0005493164 0.1637087 0 255 0
0.0005369186 -0.0008230209 0.1659355 0 255 0
0.0005369186 -0.001096249 0.1681628 0 255 0
0.0005369186 -0.001369953 0.1703901 0 255 0
0.0005369186 -0.001643181 0.1726174 0 255 0
0.0005369186 -0.001916885 0.1748452 0 255 0
0.0005369186 -0.002190113 0.177072 0 255 0
0.0005369186 -0.002463818 0.1792994 0 255 0
0.0005369186 -0.002737045 0.1815271 0 255 0
0.0005369186 -0.00301075 0.183754 0 255 0
0.0005369186 -0.003283978 0.1859813 0 255 0
0.0005369186 -0.003557682 0.1882091 0 255 0
0.0005369186 -0.00383091 0.1904359 0 255 0
0.0005369186 -0.004104614 0.1926637 0 255 0
0.0005369186 -0.004377842 0.1948905 0 255 0
0.0005369186 -0.004651546 0.1971178 0 255 0
0.0005369186 -0.004924774 0.1993456 0 255 0
0.0005369186 -0.005198479 0.2015724 0 255 0
0.0005369186 -0.005471706 0.2037997 0 255 0
0.0005369186 -0.005745411 0.2060275 0 255 0
0.0005369186 -0.006019115 0.2082543 0 255 0
0.0005369186 -0.006292343 0.2104821 0 255 0
0.0005369186 -0.006566048 0.212709 0 255 0
0.0005369186 -0.006839275 0.2149363 0 255 0
0.0005369186 -0.00711298 0.217164 0 255 0
0.0005369186 -0.007386208 0.2193909 0 255 0
0.0005369186 -0.007659912 0.2216182 0 255 0
0.0005369186 -0.00793314 0.223846 0 255 0
0.0005369186 -0.008206844 0.2260728 0 255 0
0.0005369186 -0.008480072 0.2283006 0 255 0
0.0005369186 -0.008753777 0.2305274 0 255 0
0.0005369186 -0.009027004 0.2327547 0 255 0
0.0005369186 -0.009300709 0.2349825 0 255 0
0.0005369186 -0.009573936 0.2372093 0 255 0
0.0005369186 -0.009847641 0.2394366 0 255 0
0.0005369186 -0.01012087 0.2416644 0 255 0
0.0005369186 -0.01039457 0.2438912 0 255 0
0.0005369186 -0.01066828 0.246119 0 255 0
0.0005369186 -0.01094151 0.2483459 0 255 0
0.0005369186 -0.01121521 0.2505732 0 255 0
0.0005369186 -0.01148844 0.2528009 0 255 0
0.0005369186 -0.01176214 0.2550278 0 255 0
0.0005369186 -0.01203537 0.2572551 0 255 0
0.0005369186 -0.01230907 0.2594829 0 255 0
0.0005369186 -0.0125823 0.2617097 0 255 0
0.0005369186 -0.01285601 0.2639375 0 255 0
0.0005369186 -0.01312923 0.2661643 0 255 0
0.0005369186 -0.01340294 0.2683916 0 255 0
0.0005369186 -0.01367617 0.2706194 0 255 0
0.0005369186 -0.01394987 0.2728462 0 255 0
0.0005369186 -0.0142231 0.2750735 0 255 0
0.0005369186 -0.0144968 0.2773013 0 255 0
0.0005369186 -0.01477003 0.2795281 0 255 0
0.0005369186 -0.01504374 0.2817559 0 255 0
0.0005369186 -0.01531696 0.2839828 0 255 0
0.0005369186 -0.01559067 0.2862101 0 255 0
0.0005369186 -0.01586437 0.2884378 0 255 0
0.0005369186 -0.0161376 0.2906647 0 255 0
0.0005369186 -0.0164113 0.292892 0 255 0
0.0005369186 -0.01668453 0.2951198 0 255 0
0.0005369186 -0.01695824 0.2973466 0 255 0
0.0005369186 -0.01723146 0.2995744 0 255 0
0.0005369186 -0.01750517 0.3018012 0 255 0
0.0005369186 -0.0177784 0.3040285 0 255 0
0.0005369186 -0.0180521 0.3062563 0 255 0
0.0005369186 -0.01832533 0.3084831 0 255 0
0.0005369186 -0.01859903 0.3107104 0 255 0
0.0005369186 -0.01887226 0.3129382 0 255 0
0.0005369186 -0.01914597 0.315165 0 255 0
0.0005369186 -0.01941919 0.3173928 0 255 0
0.0005369186 -0.0196929 0.3196201 0 255 0
0.0005369186 -0.01996613 0.321847 0 255 0
0.0005369186 -0.02023983 0.3240747 0 255 0
0.0005369186 -0.02051306 0.3263016 0 255 0
0.0005369186 -0.02078676 0.3285289 0 255 0
0.0005369186 -0.02106047 0.3307567 0 255 0
0.0005369186 -0.02133369 0.3329835 0 255 0
0.0005369186 -0.02160692 0.3352108 0 255 0
0.0005369186 -0.02188063 0.3374386 0 255 0
0.0005369186 -0.02215433 0.3396654 0 255 0
0.0005369186 -0.02242756 0.3418932 0 255 0
0.0005369186 -0.02270126 0.34412 0 255 0
0.0005369186 -0.02297449 0.3463473 0 255 0
0.0005369186 -0.0232482 0.3485751 0 255 0
0.0005369186 -0.02352142 0.3508019 0 255 0
0.0005369186 -0.02379513 0.3530288 0 255 0
0.0005369186 -0.02406836 0.3552566 0 255 0
0.0005369186 -0.02434206 0.3574839 0 255 0
0.0005369186 -0.02461529 0.3597116 0 255 0
0.0005369186 -0.02488899 0.3619385 0 255 0
0.0005369186 -0.02516222 0.3641658 0 255 0
0.0005369186 -0.02543592 0.3663936 0 255 0
0.0005369186 -0.02570915 0.3686204 0 255 0
0.0005369186 -0.02598286 0.3708477 0 255 0
0.0005369186 -0.02625656 0.373075 0 255 0
0.0005369186 -0.02652979 0.3753023 0 255 0
0.0005369186 -0.02680349 0.3775301 0 255 0
0.0005369186 -0.02707672 0.3797569 0 255 0
0.0005369186 -0.02735043 0.3819842 0 255 0
0.0005369186 -0.02762365 0.384212 0 255 0
0.0005369186 -0.02789736 0.3864388 0 255 0
0.0005369186 -0.02817059 0.3886662 0 255 0
0.0005369186 -0.02844429 0.3908935 0 255 0
0.0005369186 -0.02871752 0.3931208 0 255 0
0.0005369186 -0.02899122 0.3953485 0 255 0
0.0005369186 -0.02926445 0.3975754 0 255 0
0.0005369186 -0.02953815 0.3998027 0 255 0
0.0005369186 -0.02981138 0.4020305 0 255 0
0.0005369186 -0.03008509 0.4042573 0 255 0
0.0005369186 -0.03035831 0.4064846 0 255 0
0.0005369186 -0.03063202 0.4087119 0 255 0
0.0005369186 -0.03090525 0.4109392 0 255 0
0.0005369186 -0.03117895 0.413167 0 255 0
0.0005369186 -0.03145266 0.4153938 0 255 0
0.0005369186 -0.03172588 0.4176211 0 255 0
0.0005369186 -0.03199959 0.4198489 0 255 0
0.0005369186 -0.03227282 0.4220757 0 255 0
0.0005369186 -0.03254652 0.4243031 0 255 0
0.0005369186 -0.03281975 0.4265308 0 255 0
0.0005369186 -0.03309345 0.4287577 0 255 0
0.0005369186 -0.03336668 0.4309855 0 255 0
0.0005369186 -0.03364038 0.4332123 0 255 0
0.0005369186 -0.03391361 0.4354396 0 255 0
0.0005369186 -0.03418732 0.4376674 0 255 0
0.0005369186 -0.03446054 0.4398942 0 255 0
0.0005369186 -0.03473425 0.4421215 0 255 0
0.0005369186 -0.03500748 0.4443493 0 255 0
0.0005369186 -0.03528118 0.4465761 0 255 0
0.0005369186 -0.03555489 0.4488039 0 255 0
0.0005369186 -0.03582811 0.4510307 0 255 0
0.0005369186 -0.03610134 0.453258 0 255 0
0.0005369186 -0.03637505 0.4554858 0 255 0
0.0005369186 -0.03664875 0.4577127 0 255 0
0.0005369186 -0.03692198 0.45994 0 255 0
0.0005369186 -0.03719568 0.4621677 0 255 0
0.0005369186 -0.03746891 0.4643946 0 255 0
0.0005369186 -0.03774261 0.4666224 0 255 0
0.0005369186 -0.03801584 0.4688492 0 255 0
0.0005369186 -0.03828955 0.4710765 0 255 0
0.0005369186 -0.03856277 0.4733043 0 255 0
0.0005369186 -0.03883648 0.4755311 0 255 0
0.0005369186 -0.03910971 0.4777584 0 255 0
0.0005369186 -0.03938341 0.4799862 0 255 0
0.0005369186 -0.03965664 0.482213 0 255 0
0.0005369186 -0.03993034 0.4844408 0 255 0
0.0005369186 -0.04020357 0.4866676 0 255 0
0.0005369186 -0.04047728 0.4888949 0 255 0
0.0005369186 -0.04075098 0.4911227 0 255 0
0.0005369186 -0.04102421 0.4933496 0 255 0
0.0005369186 -0.04129744 0.4955769 0 255 0
0.0005369186 -0.04157114 0.4978046 0 255 0
0.0005369186 -0.04184484 0.5000315 0 255 0
0.0005369186 -0.04211807 0.5022593 0 255 0
0.0005369186 -0.04239178 0.5044861 0 255 0
0.0005369186 -0.042665 0.5067139 0 255 0
0.0005369186 -0.04293871 0.5089412 0 255 0
0.0005369186 -0.04321194 0.511169 0 255 0
0.0005369186 -0.04348564 0.5133953 0 255 0
0.0005369186 -0.04375887 0.5156231 0 255 0
0.0005369186 -0.04403257 0.5178499 0 255 0
0.0005369186 -0.0443058 0.5200777 0 255 0
0.0005369186 -0.04457951 0.5223045 0 255 0
0.0005369186 -0.04485273 0.5245323 0 255 0
0.0005369186 -0.04512644 0.5267596 0 255 0
0.0005369186 -0.04540014 0.5289874 0 255 0
0.0005369186 -0.04567337 0.5312138 0 255 0
0.0005369186 -0.04594707 0.5334415 0 255 0
0.0005369186 -0.0462203 0.5356684 0 255 0
0.0005369186 -0.04649401 0.5378962 0 255 0
0.0005369186 -0.04676723 0.540123 0 255 0
0.0005369186 -0.04704094 0.5423508 0 255 0
0.0005369186 -0.04731417 0.5445781 0 255 0
0.0005369186 -0.04758787 0.5468059 0 255 0
0.0005369186 -0.0478611 0.5490322 0 255 0
0.0005369186 -0.0481348 0.55126 0 255 0
0.0005369186 -0.04840803 0.5534868 0 255 0
0.0005369186 -0.04870796 0.5557146 0 255 0
0.0005369186 -0.04933691 0.5579414 0 255 0
0.0005369186 -0.0499692 0.5601692 0 255 0
0.0005369186 -0.05100536 0.5623965 0 255 0
0.0005369186 -0.05248213 0.5646243 0 255 0
0.0005369186 -0.05426121 0.5668507 0 255 0
0.0005369186 -0.05703545 0.5690784 0 255 0
0.002764702 -0.1009197 -0.5690761 0 0 255
0.002764702 -0.09375477 -0.5668492 0 0 255
0.002764702 -0.08658743 -0.5646214 0 0 255
0.002764702 -0.07942295 -0.5623941 0 0 255
0.002764702 -0.0750351 -0.5601673 0 0 255
0.002764702 -0.0717926 -0.5579395 0 0 255
0.002764702 0.131918 -0.5557122 0 0 255
0.002764702 0.1460533 -0.5534844 0 0 255
0.002764702 0.1511292 -0.5512576 0 0 255
0.002764702 0.1562052 -0.5490308 0 0 255
0.002764702 0.161283 -0.546803 0 0 255
0.002764702 0.1663589 -0.5445757 0 0 255
0.002764702 0.1704822 -0.5423489 0 0 255
0.002764702 0.1730528 -0.5401211 0 0 255
0.002764702 0.175622 -0.5378942 0 0 255
0.002764702 0.1781926 -0.535666 0 0 255
0.002764702 0.1807623 -0.5334392 0 0 255
0.002764702 0.1833315 -0.5312119 0 0 255
0.002764702 0.1859021 -0.5289841 0 0 255
0.002764702 0.1884718 -0.5267572 0 0 255
0.002764702 0.1907668 -0.5245304 0 0 255
0.002764702 0.1921511 -0.5223026 0 0 255
0.002764702 0.1935353 -0.5200753 0 0 255
0.002764702 0.1949196 -0.5178475 0 0 255
0.002764702 0.1963034 -0.5156207 0 0 255
0.002764702 0.1976876 -0.5133934 0 0 255
0.002764702 0.1990719 -0.5111656 0 0 255
0.002764702 0.2004557 -0.5089388 0 0 255
0.002764702 0.2018399 -0.506712 0 0 255
0.002764702 0.2032242 -0.5044842 0 0 255
0.002764702 0.204608 -0.5022569 0 0 255
0.002764702 0.2054596 -0.5000291 0 0 255
0.002764702 0.2060409 -0.4978023 0 0 255
0.002764702 0.2066226 -0.495575 0 0 255
0.002764702 0.2072043 -0.4933472 0 0 255
0.002764702 0.2077856 -0.4911203 0 0 255
0.002764702 0.2083669 -0.4888935 0 0 255
0.002764702 0.2089486 -0.4866657 0 0 255
0.002764702 0.2095299 -0.4844384 0 0 255
0.002764702 0.2101116 -0.4822106 0 0 255
0.002764702 0.2106929 -0.4799838 0 0 255
0.002764702 0.2112746 -0.4777565 0 0 255
0.002764702 0.06297588 -0.4755287 0 0 255
0.002764702 0.06248283 -0.4733019 0 0 255
0.002764702 0.06198978 -0.4710751 0 0 255
0.002764702 0.06149673 -0.4688473 0 0 255
0.002764702 0.06103134 -0.46662 0 0 255
0.002764702 0.06096411 -0.4643922 0 0 255
0.002764702 0.06089735 -0.4621654 0 0 255
0.002764702 0.06083059 -0.459938 0 0 255
0.002764702 0.06076384 -0.4577107 0 0 255
0.002764702 0.06069708 -0.4554834 0 0 255
0.002764702 0.06063032 -0.4532566 0 0 255
0.002764702 0.06056356 -0.4510288 0 0 255
0.002764702 0.06049681 -0.4488015 0 0 255
0.002764702 0.06043005 -0.4465737 0 0 255
0.002764702 0.06036329 -0.4443469 0 0 255
0.002764702 0.06029654 -0.4421201 0 0 255
0.002764702 0.0602293 -0.4398918 0 0 255
0.002764702 0.06016254 -0.437665 0 0 255
0.002764702 0.06009579 -0.4354382 0 0 255
0.002764702 0.06002903 -0.4332104 0 0 255
0.002764702 0.2116823 -0.4309831 0 0 255
0.002764702 0.2113566 -0.4287553 0 0 255
0.002764702 0.211031 -0.4265285 0 0 255
0.002764702 0.2107053 -0.4243011 0 0 255
0.002764702 0.2103801 -0.4220734 0 0 255
0.002764702 0.2100544 -0.4198465 0 0 255
0.002764702 0.2097287 -0.4176197 0 0 255
0.002764702 0.2094035 -0.4153919 0 0 255
0.002764702 0.2090778 -0.4131646 0 0 255
0.002764702 0.2087522 -0.4109368 0 0 255
0.002764702 0.2084265 -0.40871 0 0 255
0.002764702 0.2081013 -0.4064827 0 0 255
0.002764702 0.2077756 -0.4042549 0 0 255
0.002764702 0.2071748 -0.4020281 0 0 255
0.002764702 0.2064567 -0.3998013 0 0 255
0.002764702 0.2057385 -0.3975735 0 0 255
0.002764702 0.2050204 -0.3953462 0 0 255
0.002764702 0.2043018 -0.3931184 0 0 255
0.002764702 0.2035842 -0.3908916 0 0 255
0.002764702 0.2028661 -0.3886642 0 0 255
0.002764702 0.2021475 -0.3864365 0 0 255
0.002764702 0.2014294 -0.3842096 0 0 255
0.002764702 0.2007113 -0.3819828 0 0 255
0.002764702 0.1999931 -0.379755 0 0 255
0.002764702 0.199275 -0.3775277 0 0 255
0.002764702 0.1985569 -0.3752999 0 0 255
0.002764702 0.1978388 -0.3730731 0 0 255
0.002764702 0.1971207 -0.3708458 0 0 255
0.002764702 0.1962156 -0.368618 0 0 255
0.002764702 0.1950598 -0.3663912 0 0 255
0.002764702 0.1939039 -0.3641644 0 0 255
0.002764702 0.1927476 -0.3619366 0 0 255
0.002764702 0.1915922 -0.3597093 0 0 255
0.002764702 0.1904359 -0.3574815 0 0 255
0.002764702 0.18928 -0.3552547 0 0 255
0.002764702 0.1881247 -0.3530273 0 0 255
0.002764702 0.1869683 -0.3507996 0 0 255
0.002764702 0.1858125 -0.3485727 0 0 255
0.002764702 0.1846566 -0.3463459 0 0 255
0.002764702 0.1835008 -0.3441181 0 0 255
0.002764702 0.1823449 -0.3418908 0 0 255
0.002764702 0.1811886 -0.339663 0 0 255
0.002764702 0.1799378 -0.3374362 0 0 255
0.002764702 0.1782608 -0.3352089 0 0 255
0.002764702 0.1765833 -0.3329811 0 0 255
0.002764702 0.1749058 -0.3307543 0 0 255
0.002764702 0.1732287 -0.3285275 0 0 255
0.002764702 0.1715512 -0.3262997 0 0 255
0.002764702 0.1698737 -0.3240724 0 0 255
0.002764702 0.1681967 -0.3218455 0 0 255
0.002764702 0.1665192 -0.3196177 0 0 255
0.002764702 0.1648417 -0.3173904 0 0 255
0.002764702 0.1631641 -0.3151627 0 0 255
0.002764702 0.1614866 -0.3129358 0 0 255
0.002764702 0.1598096 -0.310709 0 0 255
0.002764702 0.1580191 -0.3084812 0 0 255
0.002764702 0.1560307 -0.3062539 0 0 255
0.002764702 0.1540422 -0.3040271 0 0 255
0.002764702 0.1520529 -0.3017993 0 0 255
0.002764702 0.1500645 -0.299572 0 0 255
0.002764702 0.1480751 -0.2973442 0 0 255
0.002764702 0.1460867 -0.2951174 0 0 255
0.002764702 0.1440983 -0.2928905 0 0 255
0.002764702 0.1421313 -0.2906628 0 0 255
0.002764702 0.1404133 -0.2884355 0 0 255
0.002764702 0.1386957 -0.2862086 0 0 255
0.002764702 0.1369772 -0.2839808 0 0 255
0.002764702 0.1352592 -0.2817535 0 0 255
0.002764702 0.1335406 -0.2795258 0 0 255
0.002764702 0.1318226 -0.2772989 0 0 255
0.002764702 0.1301045 -0.2750721 0 0 255
0.002764702 0.128386 -0.2728443 0 0 255
0.002764702 0.1266685 -0.270617 0 0 255
0.002764702 0.1249504 -0.2683902 0 0 255
0.002764702 0.1232319 -0.2661624 0 0 255
0.002764702 0.1215138 -0.2639351 0 0 255
0.002764702 0.1197953 -0.2617073 0 0 255
0.002764702 0.1180882 -0.2594805 0 0 255
0.002764702 0.1168323 -0.2572536 0 0 255
0.002764702 0.1155763 -0.2550254 0 0 255
0.002764702 0.1143203 -0.2527986 0 0 255
0.002764702 0.1130648 -0.2505717 0 0 255
0.002764702 0.1118083 -0.2483439 0 0 255
0.002764702 0.1105528 -0.2461166 0 0 255
0.002764702 0.1092968 -0.2438889 0 0 255
0.002764702 0.1080408 -0.241662 0 0 255
0.002764702 0.1067853 -0.2394352 0 0 255
0.002764702 0.1055288 -0.2372069 0 0 255
0.002764702 0.1042733 -0.2349801 0 0 255
0.002764702 0.1030173 -0.2327533 0 0 255
0.002764702 0.1017613 -0.2305255 0 0 255
0.002764702 0.1005054 -0.2282982 0 0 255
0.002764702 0.09924936 -0.2260704 0 0 255
0.002764702 0.09821177 -0.2238436 0 0 255
0.002764702 0.09734821 -0.2216163 0 0 255
0.002764702 0.09648466 -0.2193885 0 0 255
0.002764702 0.09562159 -0.2171617 0 0 255
0.002764702 0.09475851 -0.2149348 0 0 255
0.002764702 0.09389496 -0.212707 0 0 255
0.002764702 0.09303141 -0.2104797 0 0 255
0.002764702 0.09216785 -0.208252 0 0 255
0.002764702 0.09130478 -0.2060251 0 0 255
0.002764702 0.0904417 -0.2037978 0 0 255
0.002764702 0.08957815 -0.20157 0 0 255
0.002764702 0.0887146 -0.1993432 0 0 255
0.002764702 0.08785152 -0.1971164 0 0 255
0.002764702 0.08698797 -0.1948886 0 0 255
0.002764702 0.0861249 -0.1926613 0 0 255
0.002764702 0.08526134 -0.1904335 0 0 255
0.002764702 0.08439779 -0.1882067 0 0 255
0.002764702 0.08371353 -0.1859794 0 0 255
0.002764702 0.08302975 -0.1837516 0 0 255
0.002764702 0.08234549 -0.1815248 0 0 255
0.002764702 0.0816617 -0.1792979 0 0 255
0.002764702 0.08097744 -0.1770701 0 0 255
0.002764702 0.08029366 -0.1748428 0 0 255
0.002764702 0.07960939 -0.1726151 0 0 255
0.002764702 0.07892513 -0.1703882 0 0 255
0.002764702 0.07824135 -0.1681609 0 0 255
0.002764702 0.07755709 -0.1659331 0 0 255
0.002764702 0.0768733 -0.1637063 0 0 255
0.002764702 0.07618904 -0.1614795 0 0 255
0.002764702 0.07550526 -0.1592517 0 0 255
0.002764702 0.074821 -0.1570244 0 0 255
0.002764702 0.07413673 -0.1547966 0 0 255
0.002764702 0.07345295 -0.1525698 0 0 255
0.002764702 0.07276917 -0.1503425 0 0 255
0.002764702 0.0720849 -0.1481147 0 0 255
0.002764702 0.07140064 -0.1458879 0 0 255
0.002764702 0.07071686 -0.143661 0 0 255
0.002764702 0.0700326 -0.1414332 0 0 255
0.002764702 0.06934881 -0.1392059 0 0 255
0.002764702 0.06866455 -0.1369781 0 0 255
0.002764702 0.06798077 -0.1347513 0 0 255
0.002764702 0.0672965 -0.132524 0 0 255
0.002764702 0.06661224 -0.1302962 0 0 255
0.002764702 0.06592846 -0.1280694 0 0 255
0.002764702 0.06524467 -0.1258426 0 0 255
0.002764702 0.06456041 -0.1236148 0 0 255
0.002764702 0.06387615 -0.1213875 0 0 255
0.002764702 0.06319237 -0.1191597 0 0 255
0.002764702 0.06250811 -0.1169329 0 0 255
0.002764702 0.06182432 -0.1147056 0 0 255
0.002764702 0.06114006 -0.1124778 0 0 255
0.002764702 0.06045628 -0.1102509 0 0 255
0.002764702 0.05977201 -0.1080241 0 0 255
0.002764702 0.05908775 -0.1057963 0 0 255
0.002764702 0.05840397 -0.103569 0 0 255
0.002764702 0.05771971 -0.1013412 0 0 255
0.002764702 0.05703592 -0.09911442 0 0 255
0.002764702 0.05635166 -0.09688711 0 0 255
0.002764702 0.05566788 -0.09465933 0 0 255
0.002764702 0.05498362 -0.0924325 0 0 255
0.002764702 0.05429983 -0.09020567 0 0 255
0.002764702 0.05361557 -0.08797789 0 0 255
0.002764702 0.05293179 -0.08575058 0 0 255
0.002764702 0.05224752 -0.0835228 0 0 255
0.002764702 0.05156326 -0.08129597 0 0 255
0.002764702 0.05087948 -0.07906866 0 0 255
0.002764702 0.05019522 -0.07684088 0 0 255
0.002764702 0.04951143 -0.07461405 0 0 255
0.002764702 0.04882717 -0.07238674 0 0 255
0.002764702 0.04814339 -0.07015896 0 0 255
0.002764702 0.04745913 -0.06793213 0 0 255
0.002764702 0.04677486 -0.06570435 0 0 255
0.002764702 0.04609108 -0.06347752 0 0 255
0.002764702 0.0454073 -0.06125021 0 0 255
0.002764702 0.04472303 -0.05902243 0 0 255
0.002764702 0.04403877 -0.0567956 0 0 255
0.002764702 0.04335499 -0.05456829 0 0 255
0.002764702 0.04267073 -0.05234051 0 0 255
0.002764702 -0.007696629 -0.05011368 0 255 0
0.002764702 -0.006796837 -0.04788589 0 255 0
0.002764702 -0.005897045 -0.04565907 0 255 0
0.002764702 -0.004997253 -0.04343176 0 255 0
0.002764702 -0.004096985 -0.04120398 0 255 0
0.002764702 -0.003197193 -0.03897715 0 255 0
0.002764702 -0.002297401 -0.03674984 0 255 0
0.002764702 -0.00139761 -0.03452206 0 255 0
0.002764702 -0.000497818 -0.03229523 0 255 0
0.002764702 0.0004024506 -0.03006744 0 255 0
0.002764702 0.001302242 -0.02784061 0 255 0
0.002764702 0.002202034 -0.02561283 0 255 0
0.002764702 0.003101826 -0.02338552 0 255 0
0.002764702 0.003956318 -0.02115774 0 255 0
0.002764702 0.004643917 -0.01893139 0 255 0
0.002764702 0.005331993 -0.01670361 0 255 0
0.002764702 0.006020069 -0.01447678 0 255 0
0.002764702 0.006708145 -0.01224899 0 255 0
0.002764702 0.007396221 -0.01002216 0 255 0
0.002764702 0.008084297 -0.00779438 0 255 0
0.002764702 0.008772373 -0.005567074 0 255 0
0.002764702 0.009460449 -0.003339291 0 255 0
0.002764702 0.01014853 -0.001112938 0 255 0
0.002764702 0.0108366 0.001114845 0 255 0
0.002764702 0.01125383 0.003341675 0 255 0
0.002764702 0.01154709 0.005569458 0 255 0
0.002764702 0.01184034 0.007796288 0 255 0
0.002764702 0.0121336 0.01002407 0 255 0
0.002764702 0.01242685 0.01225138 0 255 0
0.002764702 0.01272011 0.01447916 0 255 0
0.002764702 0.01301289 0.01670551 0 255 0
0.002764702 0.01330614 0.0189333 0 255 0
0.002764702 0.0135994 0.02116013 0 255 0
0.002764702 0.01389265 0.02338791 0 255 0
0.002764702 0.01418591 0.02561474 0 255 0
0.002764702 0.01419258 0.02784252 0 255 0
0.002764702 0.01410818 0.03006983 0 255 0
0.002764702 0.01402426 0.03229761 0 255 0
0.002764702 0.01393986 0.03452396 0 255 0
0.002764702 0.01385546 0.03675175 0 255 0
0.002764702 0.01377153 0.03897953 0 255 0
0.002764702 0.01368713 0.04120636 0 255 0
0.002764702 0.01360273 0.04343319 0 255 0
0.002764702 0.01351833 0.04566097 0 255 0
0.002764702 0.01343441 0.04788828 0 255 0
0.002764702 0.01335001 0.05011606 0 255 0
0.002764702 0.01312447 0.05234289 0 255 0
0.002764702 0.01285124 0.0545702 0 255 0
0.002764702 0.01257753 0.05679798 0 255 0
0.002764702 0.01230431 0.05902481 0 255 0
0.002764702 0.0120306 0.06125164 0 255 0
0.002764702 0.01175737 0.06347942 0 255 0
0.002764702 0.01148367 0.06570673 0 255 0
0.002764702 0.01121044 0.06793451 0 255 0
0.002764702 0.01093674 0.07016134 0 255 0
0.002764702 0.01066351 0.07238865 0 255 0
0.002764702 0.0103898 0.07461643 0 255 0
0.002764702 0.01011658 0.07684326 0 255 0
0.002764702 0.009842873 0.07907009 0 255 0
0.002764702 0.009569168 0.08129787 0 255 0
0.002764702 0.00929594 0.08352518 0 255 0
0.002764702 0.009022236 0.08575296 0 255 0
0.002764702 0.008749008 0.08797979 0 255 0
0.002764702 0.008475304 0.0902071 0 255 0
0.002764702 0.008202076 0.09243488 0 255 0
0.002764702 0.007928371 0.09466171 0 255 0
0.002764702 0.007655144 0.09688854 0 255 0
0.002764702 0.007381439 0.09911633 0 255 0
0.002764702 0.007108212 0.1013436 0 255 0
0.002764702 0.006834507 0.1035714 0 255 0
0.002764702 0.006561279 0.1057982 0 255 0
0.002764702 0.006287575 0.1080256 0 255 0
0.002764702 0.006014347 0.1102533 0 255 0
0.002764702 0.005740643 0.1124802 0 255 0
0.002764702 0.005467415 0.114707 0 255 0
0.002764702 0.00519371 0.1169348 0 255 0
0.002764702 0.004920483 0.1191621 0 255 0
0.002764702 0.004646778 0.1213899 0 255 0
0.002764702 0.004373074 0.1236167 0 255 0
0.002764702 0.004099846 0.125844 0 255 0
0.002764702 0.003826141 0.1280718 0 255 0
0.002764702 0.003552914 0.1302986 0 255 0
0.002764702 0.003279209 0.1325254 0 255 0
0.002764702 0.003005981 0.1347532 0 255 0
0.002764702 0.002732277 0.1369805 0 255 0
0.002764702 0.002459049 0.1392083 0 255 0
0.002764702 0.002185345 0.1414351 0 255 0
0.002764702 0.001912117 0.1436625 0 255 0
0.002764702 0.001638412 0.1458902 0 255 0
0.002764702 0.001365185 0.1481171 0 255 0
0.002764702 0.00109148 0.1503444 0 255 0
0.002764702 0.0008182526 0.1525722 0 255 0
0.002764702 0.000544548 0.154799 0 255 0
0.002764702 0.0002708435 0.1570268 0 255 0
0.002764702 -2.384186E-06 0.1592536 0 255 0
0.002764702 -0.0002756119 0.1614809 0 255 0
0.002764702 -0.0005493164 0.1637087 0 255 0
0.002764702 -0.0008230209 0.1659355 0 255 0
0.002764702 -0.001096249 0.1681628 0 255 0
0.002764702 -0.001369953 0.1703906 0 255 0
0.002764702 -0.001643181 0.1726174 0 255 0
0.002764702 -0.001916885 0.1748452 0 255 0
0.002764702 -0.002190113 0.177072 0 255 0
0.002764702 -0.002463818 0.1792994 0 255 0
0.002764702 -0.002737045 0.1815271 0 255 0
0.002764702 -0.00301075 0.183754 0 255 0
0.002764702 -0.003283978 0.1859813 0 255 0
0.002764702 -0.003557682 0.1882091 0 255 0
0.002764702 -0.00383091 0.1904359 0 255 0
0.002764702 -0.004104614 0.1926637 0 255 0
0.002764702 -0.004377842 0.1948905 0 255 0
0.002764702 -0.004651546 0.1971178 0 255 0
0.002764702 -0.004924774 0.1993456 0 255 0
0.002764702 -0.005198479 0.2015724 0 255 0
0.002764702 -0.005471706 0.2037997 0 255 0
0.002764702 -0.005745411 0.2060275 0 255 0
0.002764702 -0.006019115 0.2082543 0 255 0
0.002764702 -0.006292343 0.2104821 0 255 0
0.002764702 -0.006566048 0.212709 0 255 0
0.002764702 -0.006839275 0.2149363 0 255 0
0.002764702 -0.00711298 0.217164 0 255 0
0.002764702 -0.007386208 0.2193909 0 255 0
0.002764702 -0.007659912 0.2216182 0 255 0
0.002764702 -0.00793314 0.223846 0 255 0
0.002764702 -0.008206844 0.2260728 0 255 0
0.002764702 -0.008480072 0.2283006 0 255 0
0.002764702 -0.008753777 0.2305274 0 255 0
0.002764702 -0.009027004 0.2327547 0 255 0
0.002764702 -0.009300709 0.2349825 0 255 0
0.002764702 -0.009573936 0.2372093 0 255 0
0.002764702 -0.009847641 0.2394366 0 255 0
0.002764702 -0.01012087 0.2416644 0 255 0
0.002764702 -0.01039457 0.2438912 0 255 0
0.002764702 -0.01066828 0.246119 0 255 0
0.002764702 -0.01094151 0.2483459 0 255 0
0.002764702 -0.01121473 0.2505732 0 255 0
0.002764702 -0.01148844 0.2528009 0 255 0
0.002764702 -0.01176214 0.2550278 0 255 0
0.002764702 -0.01203537 0.2572551 0 255 0
0.002764702 -0.01230907 0.2594829 0 255 0
0.002764702 -0.0125823 0.2617097 0 255 0
0.002764702 -0.01285601 0.2639375 0 255 0
0.002764702 -0.01312923 0.2661643 0 255 0
0.002764702 -0.01340294 0.2683916 0 255 0
0.002764702 -0.01367617 0.2706194 0 255 0
0.002764702 -0.01394987 0.2728462 0 255 0
0.002764702 -0.0142231 0.2750735 0 255 0
0.002764702 -0.0144968 0.2773013 0 255 0
0.002764702 -0.01477003 0.2795281 0 255 0
0.002764702 -0.01504374 0.2817559 0 255 0
0.002764702 -0.01531696 0.2839828 0 255 0
0.002764702 -0.01559067 0.2862101 0 255 0
0.002764702 -0.01586437 0.2884378 0 255 0
0.002764702 -0.0161376 0.2906647 0 255 0
0.002764702 -0.01641083 0.292892 0 255 0
0.002764702 -0.01668453 0.2951198 0 255 0
0.002764702 -0.01695824 0.2973466 0 255 0
0.002764702 -0.01723146 0.2995744 0 255 0
0.002764702 -0.01750517 0.3018012 0 255 0
0.002764702 -0.0177784 0.3040285 0 255 0
0.002764702 -0.0180521 0.3062563 0 255 0
0.002764702 -0.01832533 0.3084831 0 255 0
0.002764702 -0.01859903 0.3107104 0 255 0
0.002764702 -0.01887226 0.3129382 0 255 0
0.002764702 -0.01914597 0.315165 0 255 0
0.002764702 -0.01941919 0.3173928 0 255 0
0.002764702 -0.0196929 0.3196201 0 255 0
0.002764702 -0.01996613 0.321847 0 255 0
0.002764702 -0.02023983 0.3240747 0 255 0
0.002764702 -0.02051306 0.3263016 0 255 0
0.002764702 -0.02078676 0.3285289 0 255 0
0.002764702 -0.02106047 0.3307567 0 255 0
0.002764702 -0.02133369 0.3329835 0 255 0
0.002764702 -0.02160692 0.3352103 0 255 0
0.002764702 -0.02188063 0.3374386 0 255 0
0.002764702 -0.02215433 0.3396654 0 255 0
0.002764702 -0.02242756 0.3418932 0 255 0
0.002764702 -0.02270126 0.34412 0 255 0
0.002764702 -0.02297449 0.3463473 0 255 0
0.002764702 -0.0232482 0.3485751 0 255 0
0.002764702 -0.02352142 0.3508019 0 255 0
0.002764702 -0.02379513 0.3530293 0 255 0
0.002764702 -0.02406836 0.355257 0 255 0
0.002764702 -0.02434206 0.3574839 0 255 0
0.002764702 -0.02461529 0.3597116 0 255 0
0.002764702 -0.02488899 0.3619385 0 255 0
0.002764702 -0.02516222 0.3641658 0 255 0
0.002764702 -0.02543592 0.3663936 0 255 0
0.002764702 -0.02570915 0.3686204 0 255 0
0.002764702 -0.02598286 0.3708477 0 255 0
0.002764702 -0.02625656 0.373075 0 255 0
0.002764702 -0.02652979 0.3753023 0 255 0
0.002764702 -0.02680349 0.3775301 0 255 0
0.002764702 -0.02707672 0.3797569 0 255 0
0.002764702 -0.02735043 0.3819842 0 255 0
0.002764702 -0.02762365 0.384212 0 255 0
0.002764702 -0.02789736 0.3864388 0 255 0
0.002764702 -0.02817059 0.3886662 0 255 0
0.002764702 -0.02844429 0.3908939 0 255 0
0.002764702 -0.02871752 0.3931208 0 255 0
0.002764702 -0.02899122 0.3953485 0 255 0
0.002764702 -0.02926445 0.3975754 0 255 0
0.002764702 -0.02953815 0.3998027 0 255 0
0.002764702 -0.02981138 0.4020305 0 255 0
0.002764702 -0.03008509 0.4042573 0 255 0
0.002764702 -0.03035831 0.4064846 0 255 0
0.002764702 -0.03063202 0.4087124 0 255 0
0.002764702 -0.03090525 0.4109392 0 255 0
0.002764702 -0.03117895 0.413167 0 255 0
0.002764702 -0.03145266 0.4153938 0 255 0
0.002764702 -0.03172588 0.4176211 0 255 0
0.002764702 -0.03199959 0.4198489 0 255 0
0.002764702 -0.03227282 0.4220757 0 255 0
0.002764702 -0.03254652 0.4243031 0 255 0
0.002764702 -0.03281975 0.4265308 0 255 0
0.002764702 -0.03309345 0.4287577 0 255 0
0.002764702 -0.03336668 0.4309855 0 255 0
0.002764702 -0.03364038 0.4332123 0 255 0
0.002764702 -0.03391361 0.4354396 0 255 0
0.002764702 -0.03418732 0.4376674 0 255 0
0.002764702 -0.03446054 0.4398942 0 255 0
0.002764702 -0.03473425 0.4421215 0 255 0
0.002764702 -0.03500748 0.4443493 0 255 0
0.002764702 -0.03528118 0.4465761 0 255 0
0.002764702 -0.03555489 0.4488039 0 255 0
0.002764702 -0.03582811 0.4510307 0 255 0
0.002764702 -0.03610134 0.453258 0 255 0
0.002764702 -0.03637505 0.4554858 0 255 0
0.002764702 -0.03664875 0.4577127 0 255 0
0.002764702 -0.03692198 0.45994 0 255 0
0.002764702 -0.03719568 0.4621677 0 255 0
0.002764702 -0.03746891 0.4643946 0 255 0
0.002764702 -0.03774261 0.4666224 0 255 0
0.002764702 -0.03801584 0.4688492 0 255 0
0.002764702 -0.03828955 0.4710765 0 255 0
0.002764702 -0.03856277 0.4733043 0 255 0
0.002764702 -0.03883648 0.4755311 0 255 0
0.002764702 -0.03910971 0.4777584 0 255 0
0.002764702 -0.03938341 0.4799862 0 255 0
0.002764702 -0.03965664 0.482213 0 255 0
0.002764702 -0.03993034 0.4844408 0 255 0
0.002764702 -0.04020357 0.4866676 0 255 0
0.002764702 -0.04047728 0.4888949 0 255 0
0.002764702 -0.04075098 0.4911227 0 255 0
0.002764702 -0.04102421 0.4933496 0 255 0
0.002764702 -0.04129744 0.4955769 0 255 0
0.002764702 -0.04157114 0.4978046 0 255 0
0.002764702 -0.04184484 0.5000315 0 255 0
0.002764702 -0.04211807 0.5022593 0 255 0
0.002764702 -0.04239178 0.5044861 0 255 0
0.002764702 -0.042665 0.5067139 0 255 0
0.002764702 -0.04293871 0.5089412 0 255 0
0.002764702 -0.04321194 0.511169 0 255 0
0.002764702 -0.04348564 0.5133953 0 255 0
0.002764702 -0.04375887 0.5156231 0 255 0
0.002764702 -0.04403257 0.5178499 0 255 0
0.002764702 -0.0443058 0.5200777 0 255 0
0.002764702 -0.04457951 0.5223045 0 255 0
0.002764702 -0.04485273 0.5245323 0 255 0
0.002764702 -0.04512644 0.5267596 0 255 0
0.002764702 -0.04540014 0.5289874 0 255 0
0.002764702 -0.04567337 0.5312138 0 255 0
0.002764702 -0.04594707 0.5334415 0 255 0
0.002764702 -0.0462203 0.5356684 0 255 0
0.002764702 -0.04649401 0.5378962 0 255 0
0.002764702 -0.04676723 0.540123 0 255 0
0.002764702 -0.04704094 0.5423508 0 255 0
0.002764702 -0.04731417 0.5445781 0 255 0
0.002764702 -0.04758787 0.5468059 0 255 0
0.002764702 -0.0478611 0.5490322 0 255 0
0.002764702 -0.0481348 0.55126 0 255 0
0.002764702 -0.04840803 0.5534868 0 255 0
0.002764702 -0.04870796 0.5557146 0 255 0
0.002764702 -0.0492835 0.5579414 0 255 0
0.002764702 -0.04991579 0.5601692 0 255 0
0.002764702 -0.05092621 0.5623965 0 255 0
0.002764702 -0.0524025 0.5646243 0 255 0
0.002764702 -0.05418205 0.5668507 0 255 0
0.002764702 -0.05703545 0.5690784 0 255 0
0.004991531 -0.1009197 -0.5690761 0 0 255
0.004991531 -0.09375477 -0.5668492 0 0 255
0.004991531 -0.08658743 -0.5646214 0 0 255
0.004991531 -0.07942295 -0.5623941 0 0 255
0.004991531 -0.0750351 -0.5601673 0 0 255
0.004991531 -0.0717926 -0.5579395 0 0 255
0.004991531 0.131918 -0.5557122 0 0 255
0.004991531 0.1460533 -0.5534844 0 0 255
0.004991531 0.1511292 -0.5512576 0 0 255
0.004991531 0.1562052 -0.5490308 0 0 255
0.004991531 0.161283 -0.546803 0 0 255
0.004991531 0.1663589 -0.5445757 0 0 255
0.004991531 0.1704822 -0.5423489 0 0 255
0.004991531 0.1730528 -0.5401211 0 0 255
0.004991531 0.175622 -0.5378938 0 0 255
0.004991531 0.1781926 -0.535666 0 0 255
0.004991531 0.1807623 -0.5334392 0 0 255
0.004991531 0.1833315 -0.5312119 0 0 255
0.004991531 0.1859021 -0.5289841 0 0 255
0.004991531 0.1884718 -0.5267572 0 0 255
0.004991531 0.1907668 -0.5245304 0 0 255
0.004991531 0.1921511 -0.5223026 0 0 255
0.004991531 0.1935353 -0.5200753 0 0 255
0.004991531 0.1949196 -0.5178475 0 0 255
0.004991531 0.1963034 -0.5156207 0 0 255
0.004991531 0.1976876 -0.5133934 0 0 255
0.004991531 0.1990719 -0.5111656 0 0 255
0.004991531 0.2004557 -0.5089388 0 0 255
0.004991531 0.2018399 -0.506712 0 0 255
0.004991531 0.2032242 -0.5044842 0 0 255
0.004991531 0.204608 -0.5022569 0 0 255
0.004991531 0.2054596 -0.5000291 0 0 255
0.004991531 0.2060413 -0.4978023 0 0 255
0.004991531 0.2066226 -0.495575 0 0 255
0.004991531 0.2072039 -0.4933472 0 0 255
0.004991531 0.2077856 -0.4911203 0 0 255
0.004991531 0.2083669 -0.4888935 0 0 255
0.004991531 0.2089486 -0.4866657 0 0 255
0.004991531 0.2095299 -0.4844384 0 0 255
0.004991531 0.2101116 -0.4822106 0 0 255
0.004991531 0.2106929 -0.4799838 0 0 255
0.004991531 0.2112741 -0.4777565 0 0 255
0.004991531 0.06297588 -0.4755287 0 0 255
0.004991531 0.06248283 -0.4733019 0 0 255
0.004991531 0.06198978 -0.4710751 0 0 255
0.004991531 0.06149673 -0.4688473 0 0 255
0.004991531 0.06103134 -0.46662 0 0 255
0.004991531 0.06096411 -0.4643922 0 0 255
0.004991531 0.06089735 -0.4621654 0 0 255
0.004991531 0.06083059 -0.459938 0 0 255
0.004991531 0.06076384 -0.4577103 0 0 255
0.004991531 0.06069708 -0.4554834 0 0 255
0.004991531 0.06063032 -0.4532566 0 0 255
0.004991531 0.06056356 -0.4510288 0 0 255
0.004991531 0.06049681 -0.4488015 0 0 255
0.004991531 0.06043005 -0.4465737 0 0 255
0.004991531 0.06036329 -0.4443469 0 0 255
0.004991531 0.06029606 -0.4421196 0 0 255
0.004991531 0.0602293 -0.4398918 0 0 255
0.004991531 0.06016254 -0.437665 0 0 255
0.004991531 0.06009579 -0.4354382 0 0 255
0.004991531 0.06002903 -0.4332104 0 0 255
0.004991531 0.2116823 -0.4309831 0 0 255
0.004991531 0.2113566 -0.4287553 0 0 255
0.004991531 0.211031 -0.4265285 0 0 255
0.004991531 0.2107053 -0.4243011 0 0 255
0.004991531 0.2103801 -0.4220734 0 0 255
0.004991531 0.2100544 -0.4198465 0 0 255
0.004991531 0.2097287 -0.4176197 0 0 255
0.004991531 0.209403 -0.4153919 0 0 255
0.004991531 0.2090778 -0.4131646 0 0 255
0.004991531 0.2087522 -0.4109368 0 0 255
0.004991531 0.2084265 -0.40871 0 0 255
0.004991531 0.2081013 -0.4064827 0 0 255
0.004991531 0.2077756 -0.4042549 0 0 255
0.004991531 0.2071748 -0.4020281 0 0 255
0.004991531 0.2064567 -0.3998013 0 0 255
0.004991531 0.2057385 -0.3975735 0 0 255
0.004991531 0.2050204 -0.3953462 0 0 255
0.004991531 0.2043023 -0.3931184 0 0 255
0.004991531 0.2035842 -0.3908916 0 0 255
0.004991531 0.2028661 -0.3886642 0 0 255
0.004991531 0.2021475 -0.3864365 0 0 255
0.004991531 0.2014294 -0.3842096 0 0 255
0.004991531 0.2007113 -0.3819828 0 0 255
0.004991531 0.1999931 -0.379755 0 0 255
0.004991531 0.199275 -0.3775277 0 0 255
0.004991531 0.1985569 -0.3752999 0 0 255
0.004991531 0.1978388 -0.3730731 0 0 255
0.004991531 0.1971207 -0.3708458 0 0 255
0.004991531 0.1962156 -0.368618 0 0 255
0.004991531 0.1950598 -0.3663912 0 0 255
0.004991531 0.1939039 -0.3641644 0 0 255
0.004991531 0.1927476 -0.3619366 0 0 255
0.004991531 0.1915922 -0.3597093 0 0 255
0.004991531 0.1904359 -0.3574815 0 0 255
0.004991531 0.18928 -0.3552547 0 0 255
0.004991531 0.1881247 -0.3530273 0 0 255
0.004991531 0.1869683 -0.3507996 0 0 255
0.004991531 0.1858125 -0.3485727 0 0 255
0.004991531 0.1846571 -0.3463459 0 0 255
0.004991531 0.1835008 -0.3441181 0 0 255
0.004991531 0.1823449 -0.3418908 0 0 255
0.004991531 0.1811886 -0.339663 0 0 255
0.004991531 0.1799378 -0.3374362 0 0 255
0.004991531 0.1782608 -0.3352089 0 0 255
0.004991531 0.1765833 -0.3329811 0 0 255
0.004991531 0.1749058 -0.3307543 0 0 255
0.004991531 0.1732287 -0.3285275 0 0 255
0.004991531 0.1715512 -0.3262997 0 0 255
0.004991531 0.1698737 -0.3240724 0 0 255
0.004991531 0.1681967 -0.3218455 0 0 255
0.004991531 0.1665192 -0.3196177 0 0 255
0.004991531 0.1648417 -0.3173904 0 0 255
0.004991531 0.1631641 -0.3151627 0 0 255
0.004991531 0.1614871 -0.3129358 0 0 255
0.004991531 0.1598096 -0.310709 0 0 255
0.004991531 0.1580191 -0.3084812 0 0 255
0.004991531 0.1560307 -0.3062539 0 0 255
0.004991531 0.1540422 -0.3040271 0 0 255
0.004991531 0.1520529 -0.3017993 0 0 255
0.004991531 0.1500645 -0.299572 0 0 255
0.004991531 0.1480751 -0.2973442 0 0 255
0.004991531 0.1460867 -0.2951174 0 0 255
0.004991531 0.1440983 -0.2928905 0 0 255
0.004991531 0.1421313 -0.2906628 0 0 255
0.004991531 0.1404133 -0.2884355 0 0 255
0.004991531 0.1386957 -0.2862086 0 0 255
0.004991531 0.1369772 -0.2839808 0 0 255
0.004991531 0.1352592 -0.2817535 0 0 255
0.004991531 0.1335406 -0.2795258 0 0 255
0.004991531 0.1318226 -0.2772989 0 0 255
0.004991531 0.1301045 -0.2750721 0 0 255
0.004991531 0.128386 -0.2728443 0 0 255
0.004991531 0.1266685 -0.270617 0 0 255
0.004991531 0.1249504 -0.2683902 0 0 255
0.004991531 0.1232319 -0.2661624 0 0 255
0.004991531 0.1215138 -0.2639351 0 0 255
0.004991531 0.1197953 -0.2617073 0 0 255
0.004991531 0.1180882 -0.2594805 0 0 255
0.004991531 0.1168323 -0.2572536 0 0 255
0.004991531 0.1155763 -0.2550259 0 0 255
0.004991531 0.1143203 -0.2527986 0 0 255
0.004991531 0.1130648 -0.2505717 0 0 255
0.004991531 0.1118083 -0.2483439 0 0 255
0.004991531 0.1105528 -0.2461166 0 0 255
0.004991531 0.1092968 -0.2438889 0 0 255
0.004991531 0.1080408 -0.241662 0 0 255
0.004991531 0.1067853 -0.2394347 0 0 255
0.004991531 0.1055288 -0.2372069 0 0 255
0.004991531 0.1042733 -0.2349801 0 0 255
0.004991531 0.1030173 -0.2327533 0 0 255
0.004991531 0.1017613 -0.2305255 0 0 255
0.004991531 0.1005054 -0.2282982 0 0 255
0.004991531 0.09924936 -0.2260704 0 0 255
0.004991531 0.09821177 -0.2238436 0 0 255
0.004991531 0.09734821 -0.2216163 0 0 255
0.004991531 0.09648466 -0.2193885 0 0 255
0.004991531 0.09562159 -0.2171617 0 0 255
0.004991531 0.09475851 -0.2149348 0 0 255
0.004991531 0.09389496 -0.212707 0 0 255
0.004991531 0.09303141 -0.2104797 0 0 255
0.004991531 0.09216785 -0.208252 0 0 255
0.004991531 0.09130478 -0.2060251 0 0 255
0.004991531 0.0904417 -0.2037978 0 0 255
0.004991531 0.08957815 -0.20157 0 0 255
0.004991531 0.0887146 -0.1993432 0 0 255
0.004991531 0.08785152 -0.1971164 0 0 255
0.004991531 0.08698797 -0.1948886 0 0 255
0.004991531 0.0861249 -0.1926613 0 0 255
0.004991531 0.08526134 -0.1904335 0 0 255
0.004991531 0.08439779 -0.1882067 0 0 255
0.004991531 0.08371353 -0.1859794 0 0 255
0.004991531 0.08302975 -0.1837516 0 0 255
0.004991531 0.08234549 -0.1815248 0 0 255
0.004991531 0.0816617 -0.1792979 0 0 255
0.004991531 0.08097744 -0.1770701 0 0 255
0.004991531 0.08029366 -0.1748428 0 0 255
0.004991531 0.07960939 -0.1726151 0 0 255
0.004991531 0.07892513 -0.1703882 0 0 255
0.004991531 0.07824135 -0.1681609 0 0 255
0.004991531 0.07755709 -0.1659331 0 0 255
0.004991531 0.0768733 -0.1637063 0 0 255
0.004991531 0.07618904 -0.1614795 0 0 255
0.004991531 0.07550526 -0.1592517 0 0 255
0.004991531 0.074821 -0.1570244 0 0 255
0.004991531 0.07413673 -0.1547966 0 0 255
0.004991531 0.07345295 -0.1525698 0 0 255
0.004991531 0.07276917 -0.1503425 0 0 255
0.004991531 0.0720849 -0.1481147 0 0 255
0.004991531 0.07140064 -0.1458879 0 0 255
0.004991531 0.07071686 -0.143661 0 0 255
0.004991531 0.0700326 -0.1414332 0 0 255
0.004991531 0.06934881 -0.1392059 0 0 255
0.004991531 0.06866455 -0.1369781 0 0 255
0.004991531 0.06798077 -0.1347513 0 0 255
0.004991531 0.0672965 -0.132524 0 0 255
0.004991531 0.06661224 -0.1302962 0 0 255
0.004991531 0.06592846 -0.1280694 0 0 255
0.004991531 0.06524467 -0.1258426 0 0 255
0.004991531 0.06456041 -0.1236148 0 0 255
0.004991531 0.06387615 -0.1213875 0 0 255
0.004991531 0.06319237 -0.1191597 0 0 255
0.004991531 0.06250811 -0.1169329 0 0 255
0.004991531 0.06182432 -0.1147056 0 0 255
0.004991531 0.06114006 -0.1124778 0 0 255
0.004991531 0.06045628 -0.1102509 0 0 255
0.004991531 0.05977201 -0.1080241 0 0 255
0.004991531 0.05908775 -0.1057959 0 0 255
0.004991531 0.05840397 -0.103569 0 0 255
0.004991531 0.05771971 -0.1013412 0 0 255
0.004991531 0.05703592 -0.09911442 0 0 255
0.004991531 0.05635166 -0.09688711 0 0 255
0.004991531 0.05566788 -0.09465933 0 0 255
0.004991531 0.05498362 -0.0924325 0 0 255
0.004991531 0.05429983 -0.09020567 0 0 255
0.004991531 0.05361557 -0.08797789 0 0 255
0.004991531 0.05293179 -0.08575058 0 0 255
0.004991531 0.05224752 -0.0835228 0 0 255
0.004991531 0.05156326 -0.08129597 0 0 255
0.004991531 0.05087948 -0.07906866 0 0 255
0.004991531 0.05019522 -0.07684088 0 0 255
0.004991531 0.04951143 -0.07461405 0 0 255
0.004991531 0.04882717 -0.07238674 0 0 255
0.004991531 0.04814339 -0.07015896 0 0 255
0.004991531 0.04745913 -0.06793213 0 0 255
0.004991531 0.04677486 -0.06570435 0 0 255
0.004991531 0.04609108 -0.06347752 0 0 255
0.004991531 0.0454073 -0.06125021 0 0 255
0.004991531 0.04472303 -0.05902243 0 0 255
0.004991531 0.04403877 -0.0567956 0 0 255
0.004991531 0.04335499 -0.05456829 0 0 255
0.004991531 0.04267073 -0.05234051 0 0 255
0.004991531 -0.007697105 -0.05011368 0 255 0
0.004991531 -0.006796837 -0.04788589 0 255 0
0.004991531 -0.005897045 -0.04565907 0 255 0
0.004991531 -0.004997253 -0.04343176 0 255 0
0.004991531 -0.004096985 -0.04120398 0 255 0
0.004991531 -0.003197193 -0.03897715 0 255 0
0.004991531 -0.002297401 -0.03674984 0 255 0
0.004991531 -0.00139761 -0.03452206 0 255 0
0.004991531 -0.000497818 -0.03229523 0 255 0
0.004991531 0.0004024506 -0.03006744 0 255 0
0.004991531 0.001302242 -0.02784061 0 255 0
0.004991531 0.002202034 -0.02561283 0 255 0
0.004991531 0.003101826 -0.02338552 0 255 0
0.004991531 0.003956318 -0.02115774 0 255 0
0.004991531 0.004643917 -0.01893139 0 255 0
0.004991531 0.005331993 -0.01670361 0 255 0
0.004991531 0.006020069 -0.01447678 0 255 0
0.004991531 0.006708145 -0.01224899 0 255 0
0.004991531 0.007396221 -0.01002216 0 255 0
0.004991531 0.008084297 -0.00779438 0 255 0
0.004991531 0.008772373 -0.005567074 0 255 0
0.004991531 0.009460449 -0.003339291 0 255 0
0.004991531 0.01014853 -0.001112938 0 255 0
0.004991531 0.0108366 0.001114845 0 255 0
0.004991531 0.01125383 0.003341675 0 255 0
0.004991531 0.01154709 0.005569458 0 255 0
0.004991531 0.01184034 0.007796288 0 255 0
0.004991531 0.0121336 0.01002407 0 255 0
0.004991531 0.01242685 0.01225138 0 255 0
0.004991531 0.01272011 0.01447916 0 255 0
0.004991531 0.01301289 0.01670551 0 255 0
0.004991531 0.01330614 0.0189333 0 255 0
0.004991531 0.0135994 0.02116013 0 255 0
0.004991531 0.01389265 0.02338791 0 255 0
0.004991531 0.01418591 0.02561474 0 255 0
0.004991531 0.01419258 0.02784252 0 255 0
0.004991531 0.01410818 0.03006983 0 255 0
0.004991531 0.01402426 0.03229761 0 255 0
0.004991531 0.01393986 0.03452396 0 255 0
0.004991531 0.01385546 0.03675175 0 255 0
0.004991531 0.01377153 0.03897953 0 255 0
0.004991531 0.01368713 0.04120636 0 255 0
0.004991531 0.01360273 0.04343319 0 255 0
0.004991531 0.01351833 0.04566097 0 255 0
0.004991531 0.01343441 0.04788828 0 255 0
0.004991531 0.01335001 0.05011606 0 255 0
0.004991531 0.01312447 0.05234289 0 255 0
0.004991531 0.01285124 0.0545702 0 255 0
0.004991531 0.01257753 0.05679798 0 255 0
0.004991531 0.01230431 0.05902481 0 255 0
0.004991531 0.0120306 0.06125164 0 255 0
0.004991531 0.01175737 0.06347942 0 255 0
0.004991531 0.01148367 0.06570673 0 255 0
0.004991531 0.01121044 0.06793451 0 255 0
0.004991531 0.01093674 0.07016134 0 255 0
0.004991531 0.01066351 0.07238865 0 255 0
0.004991531 0.0103898 0.07461643 0 255 0
0.004991531 0.01011658 0.07684326 0 255 0
0.004991531 0.009842873 0.07907009 0 255 0
0.004991531 0.009569168 0.08129787 0 255 0
0.004991531 0.00929594 0.08352518 0 255 0
0.004991531 0.009022236 0.08575296 0 255 0
0.004991531 0.008749008 0.08797979 0 255 0
0.004991531 0.008475304 0.0902071 0 255 0
0.004991531 0.008202076 0.09243488 0 255 0
0.004991531 0.007928371 0.09466171 0 255 0
0.004991531 0.007655144 0.09688854 0 255 0
0.004991531 0.007381439 0.09911633 0 255 0
0.004991531 0.007108212 0.1013436 0 255 0
0.004991531 0.006834507 0.1035714 0 255 0
0.004991531 0.006561279 0.1057982 0 255 0
0.004991531 0.006287575 0.1080256 0 255 0
0.004991531 0.006014347 0.1102533 0 255 0
0.004991531 0.005740643 0.1124802 0 255 0
0.004991531 0.005467415 0.114707 0 255 0
0.004991531 0.00519371 0.1169348 0 255 0
0.004991531 0.004920483 0.1191621 0 255 0
0.004991531 0.004646778 0.1213899 0 255 0
0.004991531 0.004373074 0.1236167 0 255 0
0.004991531 0.004099846 0.125844 0 255 0
0.004991531 0.003826141 0.1280718 0 255 0
0.004991531 0.003552914 0.1302986 0 255 0
0.004991531 0.003279209 0.1325254 0 255 0
0.004991531 0.003005981 0.1347532 0 255 0
0.004991531 0.002732277 0.1369805 0 255 0
0.004991531 0.002459049 0.1392083 0 255 0
0.004991531 0.002185345 0.1414351 0 255 0
0.004991531 0.001912117 0.1436625 0 255 0
0.004991531 0.001638412 0.1458902 0 255 0
0.004991531 0.001365185 0.1481171 0 255 0
0.004991531 0.00109148 0.1503439 0 255 0
0.004991531 0.0008182526 0.1525722 0 255 0
0.004991531 0.000544548 0.154799 0 255 0
0.004991531 0.0002708435 0.1570268 0 255 0
0.004991531 -2.384186E-06 0.1592536 0 255 0
0.004991531 -0.0002756119 0.1614809 0 255 0
0.004991531 -0.0005493164 0.1637087 0 255 0
0.004991531 -0.0008230209 0.1659355 0 255 0
0.004991531 -0.001096249 0.1681628 0 255 0
0.004991531 -0.001369953 0.1703906 0 255 0
0.004991531 -0.001643181 0.1726174 0 255 0
0.004991531 -0.001916885 0.1748452 0 255 0
0.004991531 -0.002190113 0.177072 0 255 0
0.004991531 -0.002463818 0.1792994 0 255 0
0.004991531 -0.002737045 0.1815271 0 255 0
0.004991531 -0.00301075 0.183754 0 255 0
0.004991531 -0.003283978 0.1859813 0 255 0
0.004991531 -0.003557682 0.1882091 0 255 0
0.004991531 -0.00383091 0.1904359 0 255 0
0.004991531 -0.004104614 0.1926637 0 255 0
0.004991531 -0.004377842 0.1948905 0 255 0
0.004991531 -0.004651546 0.1971178 0 255 0
0.004991531 -0.004924774 0.1993456 0 255 0
0.004991531 -0.005198479 0.2015724 0 255 0
0.004991531 -0.005471706 0.2037997 0 255 0
0.004991531 -0.005745411 0.2060275 0 255 0
0.004991531 -0.006019115 0.2082543 0 255 0
0.004991531 -0.006292343 0.2104821 0 255 0
0.004991531 -0.006566048 0.212709 0 255 0
0.004991531 -0.006839275 0.2149363 0 255 0
0.004991531 -0.00711298 0.217164 0 255 0
