-0.01644135 -0.09972906 0.6314354 123 255 123
-0.01644135 -0.09811497 0.6343651 123 255 123
-0.01644135 -0.09650135 0.6372948 123 255 123
-0.01644135 -0.09488726 0.6402245 123 255 123
-0.01644135 -0.09327221 0.643158 123 255 123
-0.01644135 -0.09165859 0.6460876 123 255 123
-0.01644135 -0.0900445 0.6490173 123 255 123
-0.01644135 -0.08843184 0.651947 123 255 123
-0.01644135 -0.08681822 0.6548767 123 255 123
-0.01644135 -0.08485413 0.6578064 123 255 123
-0.01644135 -0.08245802 0.6607361 123 255 123
-0.01644135 -0.08006191 0.6636658 123 255 123
-0.01644135 -0.07766771 0.6665955 123 255 123
-0.01644135 -0.07527161 0.6695251 123 255 123
-0.01644135 -0.07287169 0.6724586 123 255 123
-0.01644135 -0.07047749 0.6753883 123 255 123
-0.01644135 -0.06808138 0.678318 123 255 123
-0.01644135 -0.06470633 0.6812477 123 255 123
-0.01644135 -0.06102753 0.6841774 123 255 123
-0.01644135 -0.05734873 0.6871071 123 255 123
-0.01644135 -0.05367279 0.6900368 123 255 123
-0.01644135 -0.04999399 0.6929665 123 255 123
-0.01644135 -0.04617071 0.6958961 123 255 123
-0.01644135 -0.03968287 0.6988297 123 255 123
-0.01644135 -0.03320074 0.7017593 123 255 123
-0.01644135 -0.02671814 0.704689 123 255 123
-0.01644135 -0.01301479 0.7076187 123 255 123
-0.0135107 -0.02470636 -0.7486382 0 0 255
-0.0135107 -0.02591753 -0.7457085 0 0 255
-0.0135107 -0.02591753 -0.7427788 0 0 255
-0.0135107 -0.02591753 -0.7398491 0 0 255
-0.0135107 -0.02591753 -0.7369194 0 0 255
-0.0135107 -0.02591753 -0.7339859 0 0 255
-0.0135107 -0.02591753 -0.7310562 0 0 255
-0.0135107 -0.02591753 -0.7281265 0 0 255
-0.0135107 -0.02591753 -0.7251968 0 0 255
-0.0135107 -0.02591753 -0.7222672 0 0 255
-0.0135107 -0.02591753 -0.7193375 0 0 255
-0.0135107 -0.02591753 -0.7164078 0 0 255
-0.0135107 -0.02591753 -0.7134781 0 0 255
-0.0135107 -0.02591753 -0.7105484 0 0 255
-0.0135107 -0.02591753 -0.7076149 0 0 255
-0.0135107 -0.02591753 -0.7046852 0 0 255
-0.0135107 -0.02591753 -0.7017555 0 0 255
-0.0135107 -0.02591753 -0.6988258 0 0 255
-0.0135107 -0.02591753 -0.6958961 0 0 255
-0.0135107 -0.02591753 -0.6929665 0 0 255
-0.0135107 -0.02591753 -0.6900368 0 0 255
-0.0135107 -0.02591753 -0.6871071 0 0 255
-0.0135107 -0.02591753 -0.6841774 0 0 255
-0.0135107 -0.02591753 -0.6812477 0 0 255
-0.0135107 -0.02591753 -0.6783142 0 0 255
-0.0135107 -0.02591753 -0.6753845 0 0 255
-0.0135107 -0.02591753 -0.6724548 0 0 255
-0.0135107 -0.02591753 -0.6695251 0 0 255
-0.0135107 -0.02591753 -0.6665955 0 0 255
-0.0135107 -0.02591753 -0.6636658 0 0 255
-0.0135107 -0.02591753 -0.6607361 0 0 255
-0.0135107 -0.02591753 -0.6578064 0 0 255
-0.0135107 -0.02591753 -0.6548767 0 0 255
-0.0135107 -0.02591753 -0.6519432 0 0 255
-0.0135107 -0.02591753 -0.6490135 0 0 255
-0.0135107 -0.02591753 -0.6460838 0 0 255
-0.0135107 -0.02591753 -0.6431541 0 0 255
-0.0135107 -0.02591753 -0.6402245 0 0 255
-0.0135107 -0.02591753 -0.6372948 0 0 255
-0.0135107 -0.02591753 -0.6343651 0 0 255
-0.0135107 -0.02591753 -0.6314354 0 0 255
-0.0135107 -0.02591753 -0.6285057 0 0 255
-0.0135107 -0.02591753 -0.6255722 0 0 255
-0.0135107 -0.02591753 -0.6226425 0 0 255
-0.0135107 -0.02591753 -0.6197128 0 0 255
-0.0135107 -0.02591753 -0.6167831 0 0 255
-0.0135107 -0.02591753 -0.6138535 0 0 255
-0.0135107 -0.02591753 -0.6109238 0 0 255
-0.0135107 -0.02591753 -0.6079941 0 0 255
-0.0135107 -0.02591753 -0.6050644 0 0 255
-0.0135107 -0.02591753 -0.6021347 0 0 255
-0.0135107 -0.02591753 -0.599205 0 0 255
-0.0135107 -0.02591753 -0.5962715 0 0 255
-0.0135107 -0.02591753 -0.5933418 0 0 255
-0.0135107 -0.02591753 -0.5904121 0 0 255
-0.0135107 -0.02591753 -0.5874825 0 0 255
-0.0135107 -0.02591753 -0.5845528 0 0 255
-0.0135107 -0.02591753 -0.5816231 0 0 255
-0.0135107 -0.02591753 -0.5786934 0 0 255
-0.0135107 -0.02591753 -0.5757637 0 0 255
-0.0135107 -0.02591753 -0.572834 0 0 255
-0.0135107 -0.02591753 -0.5699005 0 0 255
-0.0135107 -0.02591753 -0.5669708 0 0 255
-0.0135107 -0.02591753 -0.5640411 0 0 255
-0.0135107 -0.02591753 -0.5611115 0 0 255
-0.0135107 -0.02591753 -0.5581818 0 0 255
-0.0135107 -0.02591753 -0.5552521 0 0 255
-0.0135107 -0.02591753 -0.5523224 0 0 255
-0.0135107 -0.02591753 -0.5493927 0 0 255
-0.0135107 -0.02591753 -0.546463 0 0 255
-0.0135107 -0.02591753 -0.5435333 0 0 255
-0.0135107 -0.02591753 -0.5405998 0 0 255
-0.0135107 -0.02591753 -0.5376701 0 0 255
-0.0135107 -0.02591753 -0.5347404 0 0 255
-0.0135107 -0.02591753 -0.5318108 0 0 255
-0.0135107 -0.02591753 -0.5288811 0 0 255
-0.0135107 -0.02591753 -0.5259514 0 0 255
-0.0135107 -0.02591753 -0.5230217 0 0 255
-0.0135107 -0.02591753 -0.520092 0 0 255
-0.0135107 -0.02591753 -0.5171623 0 0 255
-0.0135107 -0.02591753 -0.5142288 0 0 255
-0.0135107 -0.02591753 -0.5112991 0 0 255
-0.0135107 -0.02591753 -0.5083694 0 0 255
-0.0135107 -0.02591753 -0.5054398 0 0 255
-0.0135107 -0.02591753 -0.5025101 0 0 255
-0.0135107 -0.02591753 -0.4995804 0 0 255
-0.0135107 -0.02591753 -0.4966507 0 0 255
-0.0135107 -0.02591753 -0.493721 0 0 255
-0.0135107 -0.02591753 -0.4907913 0 0 255
-0.0135107 -0.02591753 -0.4878578 0 0 255
-0.0135107 -0.02591753 -0.4849281 0 0 255
-0.01351166 -0.02591753 -0.4819984 0 0 255
-0.01351166 -0.02591753 -0.4790688 0 0 255
-0.01351166 -0.02591753 -0.4761391 0 0 255
-0.01351166 -0.02591753 -0.4732094 0 0 255
-0.01351166 -0.02591753 -0.4702797 0 0 255
-0.01351166 -0.02591753 -0.46735 0 0 255
-0.01351166 -0.02591753 -0.4644203 0 0 255
-0.01351166 -0.02591753 -0.4614906 0 0 255
-0.01351166 -0.02591753 -0.4585571 0 0 255
-0.01351166 -0.02591753 -0.4556274 0 0 255
-0.0135107 -0.02591753 -0.4526978 0 0 255
-0.0135107 -0.02591753 -0.4497681 0 0 255
-0.0135107 -0.02591753 -0.4468384 0 0 255
-0.0135107 -0.02591753 -0.4439087 0 0 255
-0.0135107 -0.02591753 -0.440979 0 0 255
-0.0135107 -0.02591753 -0.4380493 0 0 255
-0.0135107 -0.02591753 -0.4351196 0 0 255
-0.0135107 -0.02591753 -0.4321861 0 0 255
-0.0135107 -0.02591753 -0.4292564 0 0 255
-0.0135107 -0.02591753 -0.4263268 0 0 255
-0.0135107 -0.02591753 -0.4233971 0 0 255
-0.0135107 -0.02591753 -0.4204674 0 0 255
-0.0135107 -0.02591753 -0.4175377 0 0 255
-0.0135107 -0.02591753 -0.414608 0 0 255
-0.0135107 -0.02591753 -0.4116783 0 0 255
-0.0135107 -0.02591753 -0.4087486 0 0 255
-0.0135107 -0.02591753 -0.4058189 0 0 255
-0.0135107 -0.02591753 -0.4028854 0 0 255
-0.0135107 -0.02591753 -0.3999557 0 0 255
-0.0135107 -0.02591753 -0.3970261 0 0 255
-0.0135107 -0.02591753 -0.3940964 0 0 255
-0.0135107 -0.02591753 -0.3911667 0 0 255
-0.0135107 -0.02591753 -0.388237 0 0 255
-0.0135107 -0.02591753 -0.3853073 0 0 255
-0.0135107 -0.02591753 -0.3823776 0 0 255
-0.0135107 -0.02591753 -0.3794479 0 0 255
-0.0135107 -0.02591753 -0.3765144 0 0 255
-0.0135107 -0.02591753 -0.3735847 0 0 255
-0.0135107 -0.02591753 -0.3706551 0 0 255
-0.0135107 -0.02591753 -0.3677254 0 0 255
-0.0135107 -0.02591753 -0.3647957 0 0 255
-0.0135107 -0.02591753 -0.361866 0 0 255
-0.0135107 -0.02591753 -0.3589363 0 0 255
-0.0135107 -0.02591753 -0.3560066 0 0 255
-0.0135107 -0.02591753 -0.3530769 0 0 255
-0.0135107 -0.02591753 -0.3501434 0 0 255
-0.0135107 -0.02591753 -0.3472137 0 0 255
-0.0135107 -0.02591753 -0.3442841 0 0 255
-0.0135107 -0.02591753 -0.3413544 0 0 255
-0.0135107 -0.02591753 -0.3384247 0 0 255
-0.0135107 -0.02591753 -0.335495 0 0 255
-0.0135107 -0.02591753 -0.3325653 0 0 255
-0.0135107 -0.02591753 -0.3296356 0 0 255
-0.0135107 -0.02591753 -0.3267059 0 0 255
-0.0135107 -0.02591753 -0.3237762 0 0 255
-0.0135107 -0.02591753 -0.3208427 0 0 255
-0.0135107 -0.02591753 -0.3179131 0 0 255
-0.0135107 -0.02591753 -0.3149834 0 0 255
-0.0135107 -0.02591753 -0.3120537 0 0 255
-0.0135107 -0.02591753 -0.309124 0 0 255
-0.0135107 -0.02591753 -0.3061943 0 0 255
-0.0135107 -0.02591753 -0.3032646 0 0 255
-0.0135107 -0.02591753 -0.3003349 0 0 255
-0.0135107 -0.02591753 -0.2974052 0 0 255
-0.0135107 -0.02591753 -0.2944717 0 0 255
-0.0135107 -0.02591753 -0.2915421 0 0 255
-0.0135107 -0.02591753 -0.2886124 0 0 255
-0.0135107 -0.02591753 -0.2856827 0 0 255
-0.0135107 -0.02591753 -0.282753 0 0 255
-0.0135107 -0.02591753 -0.2798233 0 0 255
-0.0135107 -0.02591753 -0.2768936 0 0 255
-0.0135107 -0.02591753 -0.2739639 0 0 255
-0.0135107 -0.02591753 -0.2710342 0 0 255
-0.0135107 -0.02591753 -0.2681046 0 0 255
-0.0135107 -0.02591753 -0.2651711 0 0 255
-0.0135107 -0.02591753 -0.2622414 0 0 255
-0.0135107 -0.02591753 -0.2593117 0 0 255
-0.0135107 -0.02591753 -0.256382 0 0 255
-0.0135107 -0.02591753 -0.2534523 0 0 255
-0.0135107 -0.02591753 -0.2505226 0 0 255
-0.0135107 -0.02591753 -0.2475929 0 0 255
-0.0135107 -0.02591753 -0.2446632 0 0 255
-0.0135107 -0.02591753 -0.2417336 0 0 255
-0.0135107 -0.02591753 -0.2388 0 0 255
-0.0135107 -0.02591753 -0.2358704 0 0 255
-0.0135107 -0.02591753 -0.2329407 0 0 255
-0.01351166 -0.02591753 -0.230011 0 0 255
-0.01351166 -0.02591753 -0.2270813 0 0 255
-0.01351166 -0.02591753 -0.2241516 0 0 255
-0.01351166 -0.02591753 -0.2212219 0 0 255
-0.01351166 -0.02591753 -0.2182922 0 0 255
-0.0135107 -0.02591753 -0.2153625 0 0 255
-0.0135107 -0.02591753 -0.212429 0 0 255
-0.0135107 -0.02591753 -0.2094994 0 0 255
-0.0135107 -0.02591753 -0.2065697 0 0 255
-0.0135107 -0.02591753 -0.20364 0 0 255
-0.0135107 -0.02591753 -0.2007103 0 0 255
-0.0135107 -0.02591753 -0.1977806 0 0 255
-0.0135107 -0.02591753 -0.1948509 0 0 255
-0.0135107 -0.02591753 -0.1919212 0 0 255
-0.0135107 -0.02591753 -0.1889915 0 0 255
-0.0135107 -0.02591753 -0.1860619 0 0 255
-0.0135107 -0.02591753 -0.1831284 0 0 255
-0.0135107 -0.02591753 -0.1801987 0 0 255
-0.0135107 -0.02591753 -0.177269 0 0 255
-0.0135107 -0.02591753 -0.1743393 0 0 255
-0.0135107 -0.02591753 -0.1714096 0 0 255
-0.0135107 -0.02591753 -0.1684799 0 0 255
-0.0135107 -0.02591753 -0.1655502 0 0 255
-0.0135107 -0.02591753 -0.1626205 0 0 255
-0.0135107 -0.02591753 -0.1596909 0 0 255
-0.0135107 -0.02591753 -0.1567574 0 0 255
-0.0135107 -0.02591753 -0.1538277 0 0 255
-0.0135107 -0.02591753 -0.150898 0 0 255
-0.0135107 -0.02591753 -0.1479683 0 0 255
-0.0135107 -0.02591753 -0.1450386 0 0 255
-0.0135107 -0.02591753 -0.1421089 0 0 255
-0.0135107 -0.02591753 -0.1391792 0 0 255
-0.0135107 -0.02591753 -0.1362495 0 0 255
-0.0135107 -0.02591753 -0.1333199 0 0 255
-0.0135107 -0.02591753 -0.1303902 0 0 255
-0.0135107 -0.02591753 -0.1274567 0 0 255
-0.0135107 -0.02591753 -0.124527 0 0 255
-0.0135107 -0.02591753 -0.1215973 0 0 255
-0.0135107 -0.02591753 -0.1186676 0 0 255
-0.0135107 -0.02591753 -0.1157379 0 0 255
-0.0135107 -0.02591753 -0.1128082 0 0 255
-0.0135107 -0.02591753 -0.1098785 0 0 255
-0.01351166 -0.02591753 -0.1069489 0 0 255
-0.0135107 -0.02591753 -0.1040192 0 0 255
-0.01351166 -0.02591753 -0.1010857 0 0 255
-0.0135107 -0.02591753 -0.09815598 0 0 255
-0.0135107 -0.02591753 -0.09522629 0 0 255
-0.0135107 -0.02591753 -0.0922966 0 0 255
-0.0135107 -0.02591753 -0.08936691 0 0 255
-0.0135107 -0.02591753 -0.08643723 0 0 255
-0.0135107 -0.02591753 -0.08350754 0 0 255
-0.01351166 -0.02591753 -0.08057785 0 0 255
-0.01351166 -0.02591753 -0.07764816 0 0 255
-0.01351166 -0.02591753 -0.07471466 0 0 255
-0.01351166 -0.02591753 -0.07178497 0 0 255
-0.01351166 -0.02591753 -0.06885529 0 0 255
-0.01351166 -0.02591753 -0.0659256 0 0 255
-0.01351166 -0.02591753 -0.06299591 0 0 255
-0.01351166 -0.02591753 -0.06006622 0 0 255
-0.01351166 -0.02591753 -0.05713654 0 0 255
-0.01351166 -0.02591753 -0.05420685 0 0 255
-0.01351166 -0.02591753 -0.05127716 0 0 255
-0.01351166 -0.02591753 -0.04834747 0 0 255
-0.01351166 -0.02591753 -0.04541397 0 0 255
-0.01351166 -0.02591753 -0.04248428 0 0 255
-0.01351166 -0.02591753 -0.0395546 0 0 255
-0.01351166 -0.02591753 -0.03662491 0 0 255
-0.01351166 -0.02591753 -0.03369522 0 0 255
-0.01351166 -0.02591753 -0.03076553 0 0 255
-0.01351166 -0.02591753 -0.02783585 0 0 255
-0.01351166 -0.02591753 -0.02490616 0 0 255
-0.01351166 -0.02591753 -0.02197647 0 0 255
-0.01351166 -0.02591753 -0.01904297 0 0 255
-0.01351166 -0.02591753 -0.01611328 0 0 255
-0.01351166 -0.02591753 -0.01318359 0 0 255
-0.01351166 -0.02591753 -0.01025391 0 0 255
-0.01351166 -0.02591753 -0.007324219 0 0 255
-0.01351166 -0.02591753 -0.004394531 0 0 255
-0.01351166 -0.02591753 -0.001464844 0 0 255
-0.01351166 -0.02591753 0.001464844 0 0 255
-0.01351166 -0.02591753 0.004394531 0 0 255
-0.01351166 -0.02591753 0.007324219 0 0 255
-0.01351166 -0.02591753 0.01025772 0 0 255
-0.01351166 -0.02591753 0.01318741 0 0 255
-0.01351166 -0.02591753 0.0161171 0 0 255
-0.01351166 -0.02591753 0.01904678 0 0 255
-0.01351166 -0.02591753 0.02197647 0 0 255
-0.01351166 -0.02591753 0.02490616 0 0 255
-0.01351166 -0.02591753 0.02783585 0 0 255
-0.01351166 -0.02591753 0.03076553 0 0 255
-0.01351166 -0.02591753 0.03369522 0 0 255
-0.01351166 -0.02591753 0.03662872 0 0 255
-0.01351166 -0.02591753 0.03955841 0 0 255
-0.01351166 -0.02591753 0.0424881 0 0 255
-0.01351166 -0.02591753 0.04541779 0 0 255
-0.01351166 -0.02591753 0.04834747 0 0 255
-0.01351166 -0.02591753 0.05127716 0 0 255
-0.01351166 -0.02591753 0.05420685 0 0 255
-0.01351166 -0.02593422 0.05713654 0 0 255
-0.01351166 -0.02622223 0.06006622 0 0 255
-0.01351166 -0.02651024 0.06299591 0 0 255
-0.01351166 -0.02679873 0.06592941 0 0 255
-0.01351166 -0.02708673 0.0688591 0 0 255
-0.01351166 -0.02737427 0.07178879 0 0 255
-0.01351166 -0.02766228 0.07471848 0 0 255
-0.01351166 -0.02795029 0.07764816 0 0 255
-0.01351166 -0.0282383 0.08057785 0 0 255
-0.01351166 -0.02852631 0.08350754 0 0 255
-0.01351166 -0.02881145 0.08643723 0 0 255
-0.01351166 -0.02903223 0.08936691 0 0 255
-0.01351166 -0.02925301 0.09230042 0 0 255
-0.01351166 -0.02949286 0.0952301 0 0 255
-0.01351166 -0.02988958 0.09815979 0 0 255
-0.01351166 -0.03028584 0.1010895 123 255 123
-0.01351166 -0.03068209 0.1040192 123 255 123
-0.01351166 -0.03107882 0.1069489 123 255 123
-0.01351166 -0.03148317 0.1098785 123 255 123
-0.01351166 -0.03200293 0.1128082 123 255 123
-0.01351166 -0.03252268 0.1157379 123 255 123
-0.01351166 -0.03304243 0.1186714 123 255 123
-0.01351166 -0.03356218 0.1216011 123 255 123
-0.01351166 -0.03408146 0.1245308 123 255 123
-0.01351166 -0.03460121 0.1274605 123 255 123
-0.01351166 -0.03512049 0.1303902 123 255 123
-0.01351166 -0.03563976 0.1333199 123 255 123
-0.01351166 -0.03615952 0.1362495 123 255 123
-0.01351166 -0.03667879 0.1391792 123 255 123
-0.01351166 -0.03719854 0.1421089 123 255 123
-0.01351166 -0.0377183 0.1450386 123 255 123
-0.01351166 -0.03823805 0.1479721 123 255 123
-0.01351166 -0.0387578 0.1509018 123 255 123
-0.01351166 -0.03927708 0.1538315 123 255 123
-0.01351166 -0.03979635 0.1567612 123 255 123
-0.0135107 -0.0403161 0.1596909 123 255 123
-0.0135107 -0.04083872 0.1626205 123 255 123
-0.01351166 -0.04136229 0.1655502 123 255 123
-0.0135107 -0.04188585 0.1684799 123 255 123
-0.01351166 -0.04240894 0.1714096 123 255 123
-0.0135107 -0.0430851 0.1743431 123 255 123
-0.0135107 -0.04376221 0.1772728 123 255 123
-0.0135107 -0.04443884 0.1802025 123 255 123
-0.0135107 -0.04511547 0.1831322 123 255 123
-0.0135107 -0.04579258 0.1860619 123 255 123
-0.0135107 -0.04646969 0.1889915 123 255 123
-0.0135107 -0.0471468 0.1919212 123 255 123
-0.0135107 -0.04782295 0.1948509 123 255 123
-0.0135107 -0.04850006 0.1977806 123 255 123
-0.0135107 -0.04917812 0.2007141 123 255 123
-0.0135107 -0.04985428 0.2036438 123 255 123
-0.0135107 -0.05053139 0.2065735 123 255 123
-0.0135107 -0.0512085 0.2095032 123 255 123
-0.0135107 -0.05186367 0.2124329 123 255 123
-0.0135107 -0.05251598 0.2153625 123 255 123
-0.0135107 -0.05316782 0.2182922 123 255 123
-0.0135107 -0.05382442 0.2212219 123 255 123
-0.0135107 -0.05468178 0.2241516 123 255 123
-0.0135107 -0.05553865 0.2270813 123 255 123
-0.0135107 -0.05639696 0.2300148 123 255 123
-0.0135107 -0.05725431 0.2329445 123 255 123
-0.0135107 -0.05811119 0.2358742 123 255 123
-0.0135107 -0.05896854 0.2388039 123 255 123
-0.0135107 -0.05982494 0.2417336 123 255 123
-0.01351166 -0.0606823 0.2446632 123 255 123
-0.0135107 -0.06153965 0.2475929 123 255 123
-0.0135107 -0.062397 0.2505226 123 255 123
-0.0135107 -0.06325436 0.2534523 123 255 123
-0.0135107 -0.06411219 0.2563858 123 255 123
-0.0135107 -0.06496954 0.2593155 123 255 123
-0.0135107 -0.06613684 0.2622452 123 255 123
-0.0135107 -0.06738186 0.2651749 123 255 123
-0.0135107 -0.06862783 0.2681046 123 255 123
-0.0135107 -0.06987333 0.2710342 123 255 123
-0.0135107 -0.07111931 0.2739639 123 255 123
-0.01351166 -0.07236528 0.2768936 123 255 123
-0.0135107 -0.07361031 0.2798233 123 255 123
-0.0135107 -0.07485628 0.282753 123 255 123
-0.01351166 -0.07610416 0.2856865 123 255 123
-0.0135107 -0.07734919 0.2886162 123 255 123
-0.0135107 -0.07859516 0.2915459 123 255 123
-0.0135107 -0.07984066 0.2944756 123 255 123
-0.0135107 -0.08108664 0.2974052 123 255 123
-0.0135107 -0.08233261 0.3003349 123 255 123
-0.01351166 -0.08357763 0.3032646 123 255 123
-0.0135107 -0.08478117 0.3061943 123 255 123
-0.0135107 -0.08589697 0.309124 123 255 123
-0.0135107 -0.08701372 0.3120575 123 255 123
-0.0135107 -0.08812904 0.3149872 123 255 123
-0.0135107 -0.08924484 0.3179169 123 255 123
-0.0135107 -0.09028769 0.3208466 123 255 123
-0.0135107 -0.09131241 0.3237762 123 255 123
-0.0135107 -0.09233665 0.3267059 123 255 123
-0.0135107 -0.09336138 0.3296356 123 255 123
-0.0135107 -0.0943861 0.3325653 123 255 123
-0.0135107 -0.09541082 0.335495 123 255 123
-0.0135107 -0.09643602 0.3384247 123 255 123
-0.0135107 -0.0974617 0.3413582 123 255 123
-0.0135107 -0.09848642 0.3442879 123 255 123
-0.0135107 -0.09951115 0.3472176 123 255 123
-0.0135107 -0.1005354 0.3501472 123 255 123
-0.0135107 -0.1016488 0.3530769 123 255 123
-0.0135107 -0.1028357 0.3560066 123 255 123
-0.0135107 -0.104023 0.3589363 123 255 123
-0.0135107 -0.1052036 0.361866 123 255 123
-0.0135107 -0.1060553 0.3647957 123 255 123
-0.0135107 -0.1069093 0.3677292 123 255 123
-0.0135107 -0.1077619 0.3706589 123 255 123
-0.0135107 -0.1086135 0.3735886 123 255 123
-0.0135107 -0.1094661 0.3765182 123 255 123
-0.0135107 -0.1103187 0.3794479 123 255 123
-0.0135107 -0.1111708 0.3823776 123 255 123
-0.0135107 -0.1120234 0.3853073 123 255 123
-0.0135107 -0.112875 0.388237 123 255 123
-0.0135107 -0.1137409 0.3911667 123 255 123
-0.0135107 -0.1146259 0.3941002 123 255 123
-0.0135107 -0.115509 0.3970299 123 255 123
-0.0135107 -0.1163926 0.3999596 123 255 123
-0.0135107 -0.1169295 0.4028893 123 255 123
-0.0135107 -0.1173272 0.4058189 123 255 123
-0.0135107 -0.1177249 0.4087486 123 255 123
-0.0135107 -0.1181698 0.4116783 123 255 123
-0.0135107 -0.1188517 0.414608 123 255 123
-0.0135107 -0.1195335 0.4175377 123 255 123
-0.0135107 -0.1202154 0.4204674 123 255 123
-0.0135107 -0.1208978 0.4234009 123 255 123
-0.0135107 -0.1215796 0.4263306 123 255 123
-0.0135107 -0.122261 0.4292603 123 255 123
-0.0135107 -0.1229429 0.4321899 123 255 123
-0.0135107 -0.1236243 0.4351196 123 255 123
-0.0135107 -0.1243062 0.4380493 123 255 123
-0.0135107 -0.1248937 0.440979 123 255 123
-0.0135107 -0.1249704 0.4439087 123 255 123
-0.0135107 -0.1250467 0.4468384 123 255 123
-0.0135107 -0.1251235 0.4497719 123 255 123
-0.0135107 -0.1251998 0.4527016 123 255 123
-0.0135107 -0.1253686 0.4556313 123 255 123
-0.0135107 -0.1255822 0.4585609 123 255 123
-0.0135107 -0.1257963 0.4614906 123 255 123
-0.0135107 -0.1260104 0.4644203 123 255 123
-0.0135107 -0.126225 0.46735 123 255 123
-0.0135107 -0.1264391 0.4702797 123 255 123
-0.0135107 -0.1266527 0.4732094 123 255 123
-0.0135107 -0.1268673 0.4761429 123 255 123
-0.0135107 -0.1270814 0.4790726 123 255 123
-0.0135107 -0.1272955 0.4820023 123 255 123
-0.0135107 -0.1274309 0.4849319 123 255 123
-0.0135107 -0.1274676 0.4878616 123 255 123
-0.0135107 -0.1275048 0.4907913 123 255 123
-0.0135107 -0.1275415 0.493721 123 255 123
-0.0135107 -0.1275787 0.4966507 123 255 123
-0.0135107 -0.1275868 0.4995804 123 255 123
-0.0135107 -0.1275868 0.5025101 123 255 123
-0.0135107 -0.1275868 0.5054436 123 255 123
-0.0135107 -0.1275868 0.5083733 123 255 123
-0.0135107 -0.1275868 0.5113029 123 255 123
-0.0135107 -0.1275868 0.5142326 123 255 123
-0.0135107 -0.1275868 0.5171623 123 255 123
-0.0135107 -0.1275868 0.520092 123 255 123
-0.0135107 -0.1275868 0.5230217 123 255 123
-0.0135107 -0.1275868 0.5259514 123 255 123
-0.0135107 -0.1275587 0.5288811 123 255 123
-0.0135107 -0.1273651 0.5318146 123 255 123
-0.0135107 -0.127171 0.5347443 123 255 123
-0.0135107 -0.1269774 0.537674 123 255 123
-0.0135107 -0.1267838 0.5406036 123 255 123
-0.01351166 -0.1265903 0.5435333 123 255 123
-0.0135107 -0.1263967 0.546463 123 255 123
-0.0135107 -0.1262031 0.5493927 123 255 123
-0.0135107 -0.1260095 0.5523224 123 255 123
-0.0135107 -0.1258159 0.5552521 123 255 123
-0.0135107 -0.1256223 0.5581818 123 255 123
-0.0135107 -0.1254282 0.5611153 123 255 123
-0.0135107 -0.1252346 0.564045 123 255 123
-0.0135107 -0.1248446 0.5669746 123 255 123
-0.0135107 -0.124248 0.5699043 123 255 123
-0.0135107 -0.1236515 0.572834 123 255 123
-0.0135107 -0.123055 0.5757637 123 255 123
-0.0135107 -0.1224585 0.5786934 123 255 123
-0.0135107 -0.1218624 0.5816231 123 255 123
-0.0135107 -0.1212659 0.5845528 123 255 123
-0.0135107 -0.1206684 0.5874863 123 255 123
-0.0135107 -0.1200724 0.590416 123 255 123
-0.0135107 -0.1194758 0.5933456 123 255 123
-0.0135107 -0.1188793 0.5962753 123 255 123
-0.0135107 -0.1182828 0.599205 123 255 123
-0.0135107 -0.1175427 0.6021347 123 255 123
-0.0135107 -0.1164923 0.6050644 123 255 123
-0.0135107 -0.1154413 0.6079941 123 255 123
-0.0135107 -0.1143904 0.6109238 123 255 123
-0.0135107 -0.1133389 0.6138535 123 255 123
-0.0135107 -0.112287 0.616787 123 255 123
-0.0135107 -0.1112361 0.6197166 123 255 123
-0.0135107 -0.1101851 0.6226463 123 255 123
-0.0135107 -0.1091337 0.625576 123 255 123
-0.0135107 -0.1080837 0.6285057 123 255 123
-0.0135107 -0.1070328 0.6314354 123 255 123
-0.0135107 -0.105926 0.6343651 123 255 123
-0.0135107 -0.1043124 0.6372948 123 255 123
-0.0135107 -0.1026988 0.6402245 123 255 123
-0.0135107 -0.1010833 0.643158 123 255 123
-0.0135107 -0.09946966 0.6460876 123 255 123
-0.0135107 -0.09785604 0.6490173 123 255 123
-0.0135107 -0.09624338 0.651947 123 255 123
-0.0135107 -0.09462929 0.6548767 123 255 123
-0.0135107 -0.09301567 0.6578064 123 255 123
-0.0135107 -0.09140205 0.6607361 123 255 123
-0.0135107 -0.08957958 0.6636658 123 255 123
-0.0135107 -0.08718538 0.6665955 123 255 123
-0.0135107 -0.08478975 0.6695251 123 255 123
-0.0135107 -0.08238935 0.6724586 123 255 123
-0.0135107 -0.07999516 0.6753883 123 255 123
-0.0135107 -0.07759905 0.678318 123 255 123
-0.0135107 -0.07520294 0.6812477 123 255 123
-0.0135107 -0.07280684 0.6841774 123 255 123
-0.0135107 -0.07015753 0.6871071 123 255 123
-0.0135107 -0.06648159 0.6900368 123 255 123
-0.0135107 -0.06280279 0.6929665 123 255 123
-0.0135107 -0.05912399 0.6958961 123 255 123
-0.0135107 -0.05544186 0.6988297 123 255 123
-0.0135107 -0.05176306 0.7017593 123 255 123
-0.0135107 -0.04751921 0.704689 123 255 123
-0.0135107 -0.04103661 0.7076187 123 255 123
-0.0135107 -0.034554 0.7105484 123 255 123
-0.0135107 -0.02807665 0.7134781 123 255 123
-0.0135107 -0.01473713 0.7164078 123 255 123
-0.01058102 -0.02649355 -0.7486382 0 0 255
-0.01058102 -0.02752066 -0.7457085 0 0 255
-0.01058102 -0.02752066 -0.7427788 0 0 255
-0.01058102 -0.02752066 -0.7398491 0 0 255
-0.01058102 -0.02752066 -0.7369194 0 0 255
-0.01058102 -0.02752066 -0.7339859 0 0 255
-0.01058102 -0.02752066 -0.7310562 0 0 255
-0.01058102 -0.02752066 -0.7281265 0 0 255
-0.01058102 -0.02752066 -0.7251968 0 0 255
-0.01058102 -0.02752066 -0.7222672 0 0 255
-0.01058102 -0.02752066 -0.7193375 0 0 255
-0.01058102 -0.02752066 -0.7164078 0 0 255
-0.01058102 -0.02752066 -0.7134781 0 0 255
-0.01058102 -0.02752066 -0.7105484 0 0 255
-0.01058102 -0.02752066 -0.7076149 0 0 255
-0.01058102 -0.02752066 -0.7046852 0 0 255
-0.01058102 -0.02752066 -0.7017555 0 0 255
-0.01058102 -0.02752066 -0.6988258 0 0 255
-0.01058102 -0.02752066 -0.6958961 0 0 255
-0.01058102 -0.02752066 -0.6929665 0 0 255
-0.01058102 -0.02752066 -0.6900368 0 0 255
-0.01058102 -0.02752066 -0.6871071 0 0 255
-0.01058102 -0.02752066 -0.6841774 0 0 255
-0.01058102 -0.02752066 -0.6812477 0 0 255
-0.01058102 -0.02752066 -0.6783142 0 0 255
-0.01058102 -0.02752066 -0.6753845 0 0 255
-0.01058102 -0.02752066 -0.6724548 0 0 255
-0.01058102 -0.02752066 -0.6695251 0 0 255
-0.01058102 -0.02752066 -0.6665955 0 0 255
-0.01058102 -0.02752066 -0.6636658 0 0 255
-0.01058102 -0.02752066 -0.6607361 0 0 255
-0.01058102 -0.02752066 -0.6578064 0 0 255
-0.01058102 -0.02752066 -0.6548767 0 0 255
-0.01058102 -0.02752066 -0.6519432 0 0 255
-0.01058102 -0.02752066 -0.6490135 0 0 255
-0.01058102 -0.02752066 -0.6460838 0 0 255
-0.01058102 -0.02752066 -0.6431541 0 0 255
-0.01058102 -0.02752066 -0.6402245 0 0 255
-0.01058102 -0.02752066 -0.6372948 0 0 255
-0.01058102 -0.02752066 -0.6343651 0 0 255
-0.01058102 -0.02752066 -0.6314354 0 0 255
-0.01058102 -0.02752066 -0.6285057 0 0 255
-0.01058102 -0.02752066 -0.6255722 0 0 255
-0.01058102 -0.02752066 -0.6226425 0 0 255
-0.01058102 -0.02752066 -0.6197128 0 0 255
-0.01058102 -0.02752066 -0.6167831 0 0 255
-0.01058102 -0.02752066 -0.6138535 0 0 255
-0.01058102 -0.02752066 -0.6109238 0 0 255
-0.01058102 -0.02752066 -0.6079941 0 0 255
-0.01058102 -0.02752066 -0.6050644 0 0 255
-0.01058102 -0.02752066 -0.6021347 0 0 255
-0.01058102 -0.02752066 -0.599205 0 0 255
-0.01058102 -0.02752066 -0.5962715 0 0 255
-0.01058102 -0.02752066 -0.5933418 0 0 255
-0.01058102 -0.02752066 -0.5904121 0 0 255
-0.01058102 -0.02752066 -0.5874825 0 0 255
-0.01058102 -0.02752066 -0.5845528 0 0 255
-0.01058102 -0.02752066 -0.5816231 0 0 255
-0.01058102 -0.02752066 -0.5786934 0 0 255
-0.01058102 -0.02752066 -0.5757637 0 0 255
-0.01058102 -0.02752066 -0.572834 0 0 255
-0.01058102 -0.02752066 -0.5699005 0 0 255
-0.01058102 -0.02752066 -0.5669708 0 0 255
-0.01058102 -0.02752066 -0.5640411 0 0 255
-0.01058102 -0.02752066 -0.5611115 0 0 255
-0.01058102 -0.02752066 -0.5581818 0 0 255
-0.01058102 -0.02752066 -0.5552521 0 0 255
-0.01058102 -0.02752066 -0.5523224 0 0 255
-0.01058102 -0.02752066 -0.5493927 0 0 255
-0.01058102 -0.02752066 -0.546463 0 0 255
-0.01058102 -0.02752066 -0.5435333 0 0 255
-0.01058102 -0.02752066 -0.5405998 0 0 255
-0.01058102 -0.02752066 -0.5376701 0 0 255
-0.01058102 -0.02752066 -0.5347404 0 0 255
-0.01058102 -0.02752066 -0.5318108 0 0 255
-0.01058102 -0.02752066 -0.5288811 0 0 255
-0.01058102 -0.02752066 -0.5259514 0 0 255
-0.01058102 -0.02752066 -0.5230217 0 0 255
-0.01058102 -0.02752066 -0.520092 0 0 255
-0.01058102 -0.02752066 -0.5171623 0 0 255
-0.01058102 -0.02752066 -0.5142288 0 0 255
-0.01058102 -0.02752066 -0.5112991 0 0 255
-0.01058102 -0.02752066 -0.5083694 0 0 255
-0.01058102 -0.02752066 -0.5054398 0 0 255
-0.01058102 -0.02752066 -0.5025101 0 0 255
-0.01058102 -0.02752066 -0.4995804 0 0 255
-0.01058102 -0.02752066 -0.4966507 0 0 255
-0.01058102 -0.02752066 -0.493721 0 0 255
-0.01058102 -0.02752066 -0.4907913 0 0 255
-0.01058102 -0.02752066 -0.4878578 0 0 255
-0.01058102 -0.02752066 -0.4849281 0 0 255
-0.01058102 -0.02752066 -0.4819984 0 0 255
-0.01058102 -0.02752066 -0.4790688 0 0 255
-0.01058102 -0.02752066 -0.4761391 0 0 255
-0.01058102 -0.02752066 -0.4732094 0 0 255
-0.01058102 -0.02752066 -0.4702797 0 0 255
-0.01058102 -0.02752066 -0.46735 0 0 255
-0.01058102 -0.02752066 -0.4644203 0 0 255
-0.01058102 -0.02752066 -0.4614906 0 0 255
-0.01058102 -0.02752066 -0.4585571 0 0 255
-0.01058102 -0.02752066 -0.4556274 0 0 255
-0.01058102 -0.02752066 -0.4526978 0 0 255
-0.01058102 -0.02752066 -0.4497681 0 0 255
-0.01058102 -0.02752066 -0.4468384 0 0 255
-0.01058102 -0.02752066 -0.4439087 0 0 255
-0.01058102 -0.02752066 -0.440979 0 0 255
-0.01058102 -0.02752066 -0.4380493 0 0 255
-0.01058102 -0.02752066 -0.4351196 0 0 255
-0.01058102 -0.02752066 -0.4321861 0 0 255
-0.01058102 -0.02752066 -0.4292564 0 0 255
-0.01058102 -0.02752066 -0.4263268 0 0 255
-0.01058102 -0.02752066 -0.4233971 0 0 255
-0.01058102 -0.02752066 -0.4204674 0 0 255
-0.01058102 -0.02752066 -0.4175377 0 0 255
-0.01058102 -0.02752066 -0.414608 0 0 255
-0.01058102 -0.02752066 -0.4116783 0 0 255
-0.01058102 -0.02752066 -0.4087486 0 0 255
-0.01058102 -0.02752066 -0.4058189 0 0 255
-0.01058102 -0.02752066 -0.4028854 0 0 255
-0.01058102 -0.02752066 -0.3999557 0 0 255
-0.01058102 -0.02752066 -0.3970261 0 0 255
-0.01058102 -0.02752066 -0.3940964 0 0 255
-0.01058102 -0.02752066 -0.3911667 0 0 255
-0.01058102 -0.02752066 -0.388237 0 0 255
-0.01058102 -0.02752066 -0.3853073 0 0 255
-0.01058102 -0.02752066 -0.3823776 0 0 255
-0.01058102 -0.02752066 -0.3794479 0 0 255
-0.01058102 -0.02752066 -0.3765144 0 0 255
-0.01058102 -0.02752066 -0.3735847 0 0 255
-0.01058102 -0.02752066 -0.3706551 0 0 255
-0.01058102 -0.02752066 -0.3677254 0 0 255
-0.01058102 -0.02752066 -0.3647957 0 0 255
-0.01058102 -0.02752066 -0.361866 0 0 255
-0.01058102 -0.02752066 -0.3589363 0 0 255
-0.01058102 -0.02752066 -0.3560066 0 0 255
-0.01058102 -0.02752066 -0.3530769 0 0 255
-0.01058102 -0.02752066 -0.3501434 0 0 255
-0.01058102 -0.02752066 -0.3472137 0 0 255
-0.01058102 -0.02752066 -0.3442841 0 0 255
-0.01058102 -0.02752066 -0.3413544 0 0 255
-0.01058102 -0.02752066 -0.3384247 0 0 255
-0.01058102 -0.02752066 -0.335495 0 0 255
-0.01058102 -0.02752066 -0.3325653 0 0 255
-0.01058102 -0.02752066 -0.3296356 0 0 255
-0.01058102 -0.02752066 -0.3267059 0 0 255
-0.01058102 -0.02752066 -0.3237762 0 0 255
-0.01058102 -0.02752066 -0.3208427 0 0 255
-0.01058102 -0.02752066 -0.3179131 0 0 255
-0.01058102 -0.02752066 -0.3149834 0 0 255
-0.01058102 -0.02752066 -0.3120537 0 0 255
-0.01058102 -0.02752066 -0.309124 0 0 255
-0.01058102 -0.02752066 -0.3061943 0 0 255
-0.01058102 -0.02752066 -0.3032646 0 0 255
-0.01058102 -0.02752066 -0.3003349 0 0 255
-0.01058102 -0.02752066 -0.2974052 0 0 255
-0.01058102 -0.02752066 -0.2944717 0 0 255
-0.01058102 -0.02752066 -0.2915421 0 0 255
-0.01058102 -0.02752066 -0.2886124 0 0 255
-0.01058102 -0.02752066 -0.2856827 0 0 255
-0.01058102 -0.02752066 -0.282753 0 0 255
-0.01058102 -0.02752066 -0.2798233 0 0 255
-0.01058102 -0.02752066 -0.2768936 0 0 255
-0.01058102 -0.02752066 -0.2739639 0 0 255
-0.01058102 -0.02752066 -0.2710342 0 0 255
-0.01058102 -0.02752066 -0.2681046 0 0 255
-0.01058102 -0.02752066 -0.2651711 0 0 255
-0.01058102 -0.02752066 -0.2622414 0 0 255
-0.01058102 -0.02752066 -0.2593117 0 0 255
-0.01058102 -0.02752066 -0.256382 0 0 255
-0.01058102 -0.02752066 -0.2534523 0 0 255
-0.01058102 -0.02752066 -0.2505226 0 0 255
-0.01058102 -0.02752066 -0.2475929 0 0 255
-0.01058102 -0.02752066 -0.2446632 0 0 255
-0.01058102 -0.02752066 -0.2417336 0 0 255
-0.01058102 -0.02752066 -0.2388 0 0 255
-0.01058102 -0.02752066 -0.2358704 0 0 255
-0.01058102 -0.02752066 -0.2329407 0 0 255
-0.01058102 -0.02752066 -0.230011 0 0 255
-0.01058102 -0.02752066 -0.2270813 0 0 255
-0.01058102 -0.02752066 -0.2241516 0 0 255
-0.01058102 -0.02752066 -0.2212219 0 0 255
-0.01058102 -0.02752066 -0.2182922 0 0 255
-0.01058102 -0.02752066 -0.2153625 0 0 255
-0.01058102 -0.02752066 -0.212429 0 0 255
-0.01058102 -0.02752066 -0.2094994 0 0 255
-0.01058102 -0.02752066 -0.2065697 0 0 255
-0.01058102 -0.02752066 -0.20364 0 0 255
-0.01058102 -0.02752066 -0.2007103 0 0 255
-0.01058102 -0.02752066 -0.1977806 0 0 255
-0.01058102 -0.02752066 -0.1948509 0 0 255
-0.01058102 -0.02752066 -0.1919212 0 0 255
-0.01058102 -0.02752066 -0.1889915 0 0 255
-0.01058102 -0.02752066 -0.1860619 0 0 255
-0.01058102 -0.02752066 -0.1831284 0 0 255
-0.01058102 -0.02752066 -0.1801987 0 0 255
-0.01058102 -0.02752066 -0.177269 0 0 255
-0.01058102 -0.02752066 -0.1743393 0 0 255
-0.01058102 -0.02752066 -0.1714096 0 0 255
-0.01058102 -0.02752066 -0.1684799 0 0 255
-0.01058102 -0.02752066 -0.1655502 0 0 255
-0.01058102 -0.02752066 -0.1626205 0 0 255
-0.01058102 -0.02752066 -0.1596909 0 0 255
-0.01058102 -0.02752066 -0.1567574 0 0 255
-0.01058102 -0.02752066 -0.1538277 0 0 255
-0.01058102 -0.02752066 -0.150898 0 0 255
-0.01058102 -0.02752066 -0.1479683 0 0 255
-0.01058102 -0.02752066 -0.1450386 0 0 255
-0.01058102 -0.02752066 -0.1421089 0 0 255
-0.01058102 -0.02752066 -0.1391792 0 0 255
-0.01058102 -0.02752066 -0.1362495 0 0 255
-0.01058102 -0.02752066 -0.1333199 0 0 255
-0.01058102 -0.02752066 -0.1303902 0 0 255
-0.01058102 -0.02752066 -0.1274567 0 0 255
-0.01058102 -0.02752066 -0.124527 0 0 255
-0.01058102 -0.02752066 -0.1215973 0 0 255
-0.01058102 -0.02752066 -0.1186676 0 0 255
-0.01058102 -0.02752066 -0.1157379 0 0 255
-0.01058102 -0.02752066 -0.1128082 0 0 255
-0.01058102 -0.02752066 -0.1098785 0 0 255
-0.01058102 -0.02752066 -0.1069489 0 0 255
-0.01058102 -0.02752066 -0.1040192 0 0 255
-0.01058102 -0.02752066 -0.1010857 0 0 255
-0.01058102 -0.02752066 -0.09815598 0 0 255
-0.01058102 -0.02752066 -0.09522629 0 0 255
-0.01058102 -0.02752066 -0.0922966 0 0 255
-0.01058102 -0.02752066 -0.08936691 0 0 255
-0.01058102 -0.02752066 -0.08643723 0 0 255
-0.01058102 -0.02752066 -0.08350754 0 0 255
-0.01058102 -0.02752066 -0.08057785 0 0 255
-0.01058102 -0.02752066 -0.07764816 0 0 255
-0.01058102 -0.02752066 -0.07471466 0 0 255
-0.01058102 -0.02752066 -0.07178497 0 0 255
-0.01058102 -0.02752066 -0.06885529 0 0 255
-0.01058102 -0.02752066 -0.0659256 0 0 255
-0.01058102 -0.02752066 -0.06299591 0 0 255
-0.01058102 -0.02752066 -0.06006622 0 0 255
-0.01058102 -0.02752066 -0.05713654 0 0 255
-0.01058102 -0.02752066 -0.05420685 0 0 255
-0.01058102 -0.02752066 -0.05127716 0 0 255
-0.01058102 -0.02752066 -0.04834747 0 0 255
-0.01058102 -0.02752066 -0.04541397 0 0 255
-0.01058102 -0.02752066 -0.04248428 0 0 255
-0.01058102 -0.02752066 -0.0395546 0 0 255
-0.01058102 -0.02752066 -0.03662491 0 0 255
-0.01058102 -0.02752066 -0.03369522 0 0 255
-0.01058102 -0.02752066 -0.03076553 0 0 255
-0.01058102 -0.02752066 -0.02783585 0 0 255
-0.01058102 -0.02752066 -0.02490616 0 0 255
-0.01058102 -0.02752066 -0.02197647 0 0 255
-0.01058102 -0.02752066 -0.01904297 0 0 255
-0.01058102 -0.02752066 -0.01611328 0 0 255
-0.01058102 -0.02752066 -0.01318359 0 0 255
-0.01058102 -0.02752066 -0.01025391 0 0 255
-0.01058102 -0.02752066 -0.007324219 0 0 255
-0.01058102 -0.02752066 -0.004394531 0 0 255
-0.01058102 -0.02752066 -0.001464844 0 0 255
-0.01058102 -0.02752066 0.001464844 0 0 255
-0.01058102 -0.02752066 0.004394531 0 0 255
-0.01058102 -0.02752066 0.007324219 0 0 255
-0.01058102 -0.02752066 0.01025772 0 0 255
-0.01058102 -0.02752066 0.01318741 0 0 255
-0.01058102 -0.02752066 0.0161171 0 0 255
-0.01058102 -0.02752066 0.01904678 0 0 255
-0.01058102 -0.02752066 0.02197647 0 0 255
-0.01058102 -0.02752066 0.02490616 0 0 255
-0.01058102 -0.02752066 0.02783585 0 0 255
-0.01058102 -0.02752066 0.03076553 0 0 255
-0.01058102 -0.02752066 0.03369522 0 0 255
-0.01058102 -0.02752066 0.03662872 0 0 255
-0.01058102 -0.02752066 0.03955841 0 0 255
-0.01058102 -0.02752066 0.0424881 0 0 255
-0.01058102 -0.02752066 0.04541779 0 0 255
-0.01058102 -0.02752066 0.04834747 0 0 255
-0.01058102 -0.02752066 0.05127716 0 0 255
-0.01058102 -0.02752066 0.05420685 0 0 255
-0.01058102 -0.02753878 0.05713654 0 0 255
-0.01058102 -0.02784586 0.06006622 0 0 255
-0.01058102 -0.02813387 0.06299591 0 0 255
-0.01058102 -0.02842236 0.06592941 0 0 255
-0.01058102 -0.02871037 0.0688591 0 0 255
-0.01058102 -0.0289979 0.07178879 0 0 255
-0.01058102 -0.02928591 0.07471848 0 0 255
-0.01058102 -0.02957392 0.07764816 0 0 255
-0.01058102 -0.02986193 0.08057785 0 0 255
-0.01058102 -0.03014994 0.08350754 0 0 255
-0.01058102 -0.03043795 0.08643723 0 0 255
-0.01058102 -0.03072596 0.08936691 0 0 255
-0.01058102 -0.03101444 0.09230042 0 0 255
-0.01058102 -0.03132868 0.0952301 0 0 255
-0.01058102 -0.03184795 0.09815979 0 0 255
-0.01058102 -0.03236771 0.1010895 123 255 123
-0.01058102 -0.03288698 0.1040192 123 255 123
-0.01058102 -0.03340673 0.1069489 123 255 123
-0.01058102 -0.03392601 0.1098785 123 255 123
-0.01058102 -0.03444529 0.1128082 123 255 123
-0.01058102 -0.03496504 0.1157379 123 255 123
-0.01058102 -0.03548479 0.1186714 123 255 123
-0.01058102 -0.03600454 0.1216011 123 255 123
-0.01058102 -0.0365243 0.1245308 123 255 123
-0.01058102 -0.03704357 0.1274605 123 255 123
-0.01058102 -0.03756332 0.1303902 123 255 123
-0.01058102 -0.03808212 0.1333199 123 255 123
-0.01058102 -0.03860188 0.1362495 123 255 123
-0.01058102 -0.03912163 0.1391792 123 255 123
-0.01058102 -0.0396409 0.1421089 123 255 123
-0.01058102 -0.04016066 0.1450386 123 255 123
-0.01058102 -0.04068041 0.1479721 123 255 123
-0.01058102 -0.04120016 0.1509018 123 255 123
-0.01058102 -0.04171991 0.1538315 123 255 123
-0.01058102 -0.04225254 0.1567612 123 255 123
-0.01058102 -0.04281616 0.1596909 123 255 123
-0.01058102 -0.04347277 0.1626205 123 255 123
-0.01058102 -0.04414988 0.1655502 123 255 123
-0.01058102 -0.04482698 0.1684799 123 255 123
-0.01058102 -0.04550314 0.1714096 123 255 123
-0.01058102 -0.0461812 0.1743431 123 255 123
-0.01058102 -0.04685831 0.1772728 123 255 123
-0.01058102 -0.04753494 0.1802025 123 255 123
-0.01058102 -0.04821157 0.1831322 123 255 123
-0.01058102 -0.04888868 0.1860619 123 255 123
-0.01058102 -0.04956579 0.1889915 123 255 123
-0.01058102 -0.05024242 0.1919212 123 255 123
-0.01058102 -0.05091906 0.1948509 123 255 123
-0.01058102 -0.05159616 0.1977806 123 255 123
-0.01058102 -0.05227423 0.2007141 123 255 123
-0.01058102 -0.05295038 0.2036438 123 255 123
-0.01058102 -0.05362844 0.2065735 123 255 123
-0.01058102 -0.05435753 0.2095032 123 255 123
-0.01058102 -0.0552001 0.2124329 123 255 123
-0.01058102 -0.05605745 0.2153625 123 255 123
-0.01058102 -0.05691385 0.2182922 123 255 123
-0.01058102 -0.05777121 0.2212219 123 255 123
-0.01058102 -0.05862856 0.2241516 123 255 123
-0.01058102 -0.05948591 0.2270813 123 255 123
-0.01058102 -0.06034374 0.2300148 123 255 123
-0.01058102 -0.0612011 0.2329445 123 255 123
-0.01058102 -0.06205845 0.2358742 123 255 123
-0.01058102 -0.06291533 0.2388039 123 255 123
-0.01058102 -0.0637722 0.2417336 123 255 123
-0.01058102 -0.06462908 0.2446632 123 255 123
-0.01058102 -0.06548643 0.2475929 123 255 123
-0.01058102 -0.06634378 0.2505226 123 255 123
-0.01058102 -0.06720114 0.2534523 123 255 123
-0.01058102 -0.06805897 0.2563858 123 255 123
-0.01058102 -0.06898403 0.2593155 123 255 123
-0.01058102 -0.07008791 0.2622452 123 255 123
-0.01058102 -0.07128048 0.2651749 123 255 123
-0.01058102 -0.07252598 0.2681046 123 255 123
-0.01058102 -0.07377195 0.2710342 123 255 123
-0.01058102 -0.07501793 0.2739639 123 255 123
-0.01058102 -0.0762639 0.2768936 123 255 123
-0.01058102 -0.07750893 0.2798233 123 255 123
-0.01058102 -0.0787549 0.282753 123 255 123
-0.01058102 -0.08000278 0.2856865 123 255 123
-0.01058102 -0.08124781 0.2886162 123 255 123
-0.01058102 -0.08249331 0.2915459 123 255 123
-0.01058102 -0.08373928 0.2944756 123 255 123
-0.01058102 -0.08498526 0.2974052 123 255 123
-0.01058102 -0.08623123 0.3003349 123 255 123
-0.01058102 -0.08747625 0.3032646 123 255 123
-0.01058102 -0.08872223 0.3061943 123 255 123
-0.01058102 -0.0899682 0.309124 123 255 123
-0.01058102 -0.09121466 0.3120575 123 255 123
-0.01058102 -0.09246063 0.3149872 123 255 123
-0.01058102 -0.09370661 0.3179169 123 255 123
-0.01058102 -0.0948596 0.3208466 123 255 123
-0.01058102 -0.09594917 0.3237762 123 255 123
-0.01058102 -0.09703732 0.3267059 123 255 123
-0.01058102 -0.09812593 0.3296356 123 255 123
-0.01058102 -0.09921503 0.3325653 123 255 123
-0.01058102 -0.1003041 0.335495 123 255 123
-0.01058102 -0.1013927 0.3384247 123 255 123
-0.01058102 -0.1024828 0.3413582 123 255 123
-0.01058102 -0.1035719 0.3442879 123 255 123
-0.01058102 -0.1046605 0.3472176 123 255 123
-0.01058102 -0.1057487 0.3501472 123 255 123
-0.01058102 -0.1068377 0.3530769 123 255 123
-0.01058102 -0.1079264 0.3560066 123 255 123
-0.01058102 -0.1090155 0.3589363 123 255 123
-0.01058102 -0.1101007 0.361866 123 255 123
-0.01058102 -0.1110582 0.3647957 123 255 123
-0.01058102 -0.11202 0.3677292 123 255 123
-0.01058102 -0.1128726 0.3706589 123 255 123
-0.01058102 -0.1137242 0.3735886 123 255 123
-0.01058102 -0.1145768 0.3765182 123 255 123
-0.01058102 -0.1154294 0.3794479 123 255 123
-0.01058102 -0.116282 0.3823776 123 255 123
-0.01058102 -0.1171346 0.3853073 123 255 123
-0.01058102 -0.1179862 0.388237 123 255 123
-0.01058102 -0.1188388 0.3911667 123 255 123
-0.01058102 -0.1196923 0.3941002 123 255 123
-0.01058102 -0.1205444 0.3970299 123 255 123
-0.01058102 -0.1214151 0.3999596 123 255 123
-0.01058102 -0.1219516 0.4028893 123 255 123
-0.01058102 -0.1226001 0.4058189 123 255 123
-0.01058102 -0.1232815 0.4087486 123 255 123
-0.01058102 -0.1239629 0.4116783 123 255 123
-0.01058102 -0.1246448 0.414608 123 255 123
-0.01058102 -0.1253266 0.4175377 123 255 123
-0.01058102 -0.126008 0.4204674 123 255 123
-0.01058102 -0.1266904 0.4234009 123 255 123
-0.01058102 -0.1273723 0.4263306 123 255 123
-0.01058102 -0.1280541 0.4292603 123 255 123
-0.01058102 -0.128736 0.4321899 123 255 123
-0.01058102 -0.1294174 0.4351196 123 255 123
-0.01058102 -0.1300988 0.4380493 123 255 123
-0.01058102 -0.1306868 0.440979 123 255 123
-0.01058102 -0.1307631 0.4439087 123 255 123
-0.01058102 -0.1308994 0.4468384 123 255 123
-0.01058102 -0.131114 0.4497719 123 255 123
-0.01058102 -0.1313281 0.4527016 123 255 123
-0.01058102 -0.1315422 0.4556313 123 255 123
-0.01058102 -0.1317563 0.4585609 123 255 123
-0.01058102 -0.1319704 0.4614906 123 255 123
-0.01058102 -0.1321845 0.4644203 123 255 123
-0.01058102 -0.1323986 0.46735 123 255 123
-0.01058102 -0.1326127 0.4702797 123 255 123
-0.01058102 -0.1328268 0.4732094 123 255 123
-0.01058102 -0.1330414 0.4761429 123 255 123
-0.01058102 -0.1332555 0.4790726 123 255 123
-0.01058102 -0.1334691 0.4820023 123 255 123
-0.01058102 -0.1336045 0.4849319 123 255 123
-0.01058102 -0.1336417 0.4878616 123 255 123
-0.01058102 -0.1336541 0.4907913 123 255 123
-0.01058102 -0.1336546 0.493721 123 255 123
-0.01058102 -0.1336541 0.4966507 123 255 123
-0.01058102 -0.1336541 0.4995804 123 255 123
-0.01058102 -0.1336546 0.5025101 123 255 123
-0.01058102 -0.1336541 0.5054436 123 255 123
-0.01058102 -0.1336546 0.5083733 123 255 123
-0.01058102 -0.1336546 0.5113029 123 255 123
-0.01058102 -0.1336546 0.5142326 123 255 123
-0.01058102 -0.1336546 0.5171623 123 255 123
-0.01058102 -0.1336541 0.520092 123 255 123
-0.01058102 -0.1336546 0.5230217 123 255 123
-0.01058102 -0.1336546 0.5259514 123 255 123
-0.01058102 -0.133626 0.5288811 123 255 123
-0.01058102 -0.1334324 0.5318146 123 255 123
-0.01058102 -0.1332388 0.5347443 123 255 123
-0.01058102 -0.1330452 0.537674 123 255 123
-0.01058102 -0.1328511 0.5406036 123 255 123
-0.01058102 -0.132658 0.5435333 123 255 123
-0.01058102 -0.1324639 0.546463 123 255 123
-0.01058102 -0.1322703 0.5493927 123 255 123
-0.01058102 -0.1320767 0.5523224 123 255 123
-0.01058102 -0.1318831 0.5552521 123 255 123
-0.01058102 -0.1316895 0.5581818 123 255 123
-0.01058102 -0.1314955 0.5611153 123 255 123
-0.01058102 -0.1313019 0.564045 123 255 123
-0.01058102 -0.1311083 0.5669746 123 255 123
-0.01058102 -0.130558 0.5699043 123 255 123
-0.01058102 -0.1299615 0.572834 123 255 123
-0.01058102 -0.129365 0.5757637 123 255 123
-0.01058102 -0.1287684 0.5786934 123 255 123
-0.01058102 -0.1281724 0.5816231 123 255 123
-0.01058102 -0.1275759 0.5845528 123 255 123
-0.01058102 -0.1269784 0.5874863 123 255 123
-0.01058102 -0.1263824 0.590416 123 255 123
-0.01058102 -0.1257858 0.5933456 123 255 123
-0.01058102 -0.1251893 0.5962753 123 255 123
-0.01058102 -0.1245928 0.599205 123 255 123
-0.01058102 -0.1239963 0.6021347 123 255 123
-0.01058102 -0.1233392 0.6050644 123 255 123
-0.01058102 -0.1222878 0.6079941 123 255 123
-0.01058102 -0.1212368 0.6109238 123 255 123
-0.01058102 -0.1201859 0.6138535 123 255 123
-0.01058102 -0.1191339 0.616787 123 255 123
-0.01058102 -0.1180825 0.6197166 123 255 123
-0.01058102 -0.1170316 0.6226463 123 255 123
-0.01058102 -0.1159806 0.625576 123 255 123
-0.01058102 -0.1149302 0.6285057 123 255 123
-0.01058102 -0.1138792 0.6314354 123 255 123
-0.01058102 -0.1128283 0.6343651 123 255 123
-0.01058102 -0.1117768 0.6372948 123 255 123
-0.01058102 -0.1105099 0.6402245 123 255 123
-0.01058102 -0.1088948 0.643158 123 255 123
-0.01058102 -0.1072807 0.6460876 123 255 123
-0.01058102 -0.1056671 0.6490173 123 255 123
-0.01058102 -0.1040545 0.651947 123 255 123
-0.01058102 -0.1024408 0.6548767 123 255 123
-0.01058102 -0.1008267 0.6578064 123 255 123
-0.01058102 -0.09921312 0.6607361 123 255 123
-0.01058102 -0.09759951 0.6636658 123 255 123
-0.01058102 -0.09598684 0.6665955 123 255 123
-0.01058102 -0.09430742 0.6695251 123 255 123
-0.01058102 -0.0919075 0.6724586 123 255 123
-0.01058102 -0.0895133 0.6753883 123 255 123
-0.01058102 -0.0871172 0.678318 123 255 123
-0.01058102 -0.08472109 0.6812477 123 255 123
-0.01058102 -0.08232498 0.6841774 123 255 123
-0.01058102 -0.07992887 0.6871071 123 255 123
-0.01058102 -0.07753468 0.6900368 123 255 123
-0.01058102 -0.07513857 0.6929665 123 255 123
-0.01058102 -0.07193279 0.6958961 123 255 123
-0.01058102 -0.06825113 0.6988297 123 255 123
-0.01058102 -0.06457186 0.7017593 123 255 123
-0.01058102 -0.06089306 0.704689 123 255 123
-0.01058102 -0.05721426 0.7076187 123 255 123
-0.01058102 -0.05353498 0.7105484 123 255 123
-0.01058102 -0.04887772 0.7134781 123 255 123
-0.01058102 -0.04239511 0.7164078 123 255 123
-0.01058102 -0.03591251 0.7193375 123 255 123
-0.01058102 -0.02942991 0.7222672 123 255 123
-0.01058102 -0.01642704 0.7252007 123 255 123
-0.007651329 -0.02707672 -0.7486382 0 0 255
-0.007651329 -0.02810335 -0.7457085 0 0 255
-0.007651329 -0.02810335 -0.7427788 0 0 255
-0.007651329 -0.02810335 -0.7398491 0 0 255
-0.007651329 -0.02810335 -0.7369194 0 0 255
-0.007651329 -0.02810335 -0.7339859 0 0 255
-0.007651329 -0.02810335 -0.7310562 0 0 255
-0.007651329 -0.02810335 -0.7281265 0 0 255
-0.007651329 -0.02810335 -0.7251968 0 0 255
-0.007651329 -0.02810335 -0.7222672 0 0 255
-0.007651329 -0.02810335 -0.7193375 0 0 255
-0.007651329 -0.02810335 -0.7164078 0 0 255
-0.007651329 -0.02810335 -0.7134781 0 0 255
-0.007651329 -0.02810335 -0.7105484 0 0 255
-0.007651329 -0.02810335 -0.7076149 0 0 255
-0.007651329 -0.02810335 -0.7046852 0 0 255
-0.007651329 -0.02810335 -0.7017555 0 0 255
-0.007651329 -0.02810335 -0.6988258 0 0 255
-0.007651329 -0.02810335 -0.6958961 0 0 255
-0.007651329 -0.02810335 -0.6929665 0 0 255
-0.007651329 -0.02810335 -0.6900368 0 0 255
-0.007651329 -0.02810335 -0.6871071 0 0 255
-0.007651329 -0.02810335 -0.6841774 0 0 255
-0.007651329 -0.02810335 -0.6812477 0 0 255
-0.007651329 -0.02810335 -0.6783142 0 0 255
-0.007651329 -0.02810335 -0.6753845 0 0 255
-0.007651329 -0.02810335 -0.6724548 0 0 255
-0.007651329 -0.02810335 -0.6695251 0 0 255
-0.007651329 -0.02810335 -0.6665955 0 0 255
-0.007651329 -0.02810335 -0.6636658 0 0 255
-0.007651329 -0.02810335 -0.6607361 0 0 255
-0.007651329 -0.02810335 -0.6578064 0 0 255
-0.007651329 -0.02810335 -0.6548767 0 0 255
-0.007651329 -0.02810335 -0.6519432 0 0 255
-0.007651329 -0.02810335 -0.6490135 0 0 255
-0.007651329 -0.02810335 -0.6460838 0 0 255
-0.007651329 -0.02810335 -0.6431541 0 0 255
-0.007651329 -0.02810335 -0.6402245 0 0 255
-0.007651329 -0.02810335 -0.6372948 0 0 255
-0.007651329 -0.02810335 -0.6343651 0 0 255
-0.007651329 -0.02810335 -0.6314354 0 0 255
-0.007651329 -0.02810335 -0.6285057 0 0 255
